# .PCD v0.7 - Point Cloud Data file format
VERSION 0.7
FIELDS x y z
SIZE 4 4 4
TYPE F F F
COUNT 1 1 1
WIDTH 1196
HEIGHT 1
VIEWPOINT 0 0 0 1 0 0 0
POINTS 1196
DATA ascii
-0.2251966645 0.3229433397 -1.544633309
-0.4066773906 0.3233802189 -1.546721744
-0.6467137132 0.3242265718 -1.545400006
0.3148316321 0.323244489 -1.548112239
0.273782342 0.3234438313 -1.547517018
0.233404897 0.3235548972 -1.548804084
0.8118299842 0.4089300036 -1.615800023
0.1134205475 0.3232566023 -1.548307554
-0.04440975509 0.3235867334 -1.548177546
-0.08757029163 0.3234943748 -1.547904154
-0.7994649857 0.3533075005 -1.636700004
0.8589175878 0.348653447 -1.625775872
-0.2855072794 0.308976735 -1.521202719
-0.4467869804 0.3091076964 -1.520683453
-0.486422879 0.3095066678 -1.521190912
-0.5257110449 0.308686193 -1.51942239
-0.5655798432 0.3090639054 -1.519959373
-0.6053541966 0.3098066134 -1.520992744
0.3132878195 0.3080795499 -1.521163158
0.2335334039 0.3081747515 -1.521695035
0.1940376917 0.3076380422 -1.520851049
0.113713112 0.3078055942 -1.520860141
-0.04665357718 0.3083528184 -1.521595974
-0.1176825536 0.3083177662 -1.521318084
-0.2462125004 0.3083899315 -1.520977775
-0.4062910076 0.3083506475 -1.519692802
-0.8046900233 0.3100666602 -1.571200013
0.3540675447 0.2927343872 -1.494054389
0.2740767349 0.2922414298 -1.493402033
0.1933067941 0.2924830183 -1.493932076
0.1134737411 0.292505515 -1.493796552
0.07362621036 0.2925347377 -1.493466664
-0.006493837537 0.2928138467 -1.493703079
-0.04664507937 0.2925990475 -1.493261907
-0.1183072229 0.2924575011 -1.492927776
-0.2206949979 0.297519502 -1.492734998
-0.2866531366 0.2928034356 -1.492670157
-0.3662512117 0.2925680311 -1.492119695
-0.4057603125 0.2924099998 -1.490842193
-0.5663020549 0.2927857357 -1.490430886
-0.6065608247 0.2930546574 -1.4907726
-0.6459150782 0.2928599986 -1.490503078
-0.7255238828 0.2933062671 -1.490388064
-0.7553624141 0.2928503433 -1.490779305
0.3142944831 0.2928072384 -1.494465518
-0.7559918967 0.3102460349 -1.521718969
-0.5257832454 0.2816796094 -1.471327269
-0.5658923984 0.2817488011 -1.47126267
-0.7264616191 0.2820067642 -1.470705883
-0.04653834688 0.2814375512 -1.473615308
-0.4061272831 0.2811493482 -1.471556522
-0.4859673753 0.2815222491 -1.471771243
-0.6056926672 0.2814138663 -1.470350669
0.4244492453 0.281101887 -1.473526406
0.1538732076 0.2808533007 -1.473328296
0.113996324 0.2809152373 -1.473637148
0.07355335588 0.2812330766 -1.474074996
-0.006397341823 0.2811199043 -1.473263459
0.3535094346 0.2804472646 -1.472979245
0.3125226205 0.2805759215 -1.473497083
0.1937601896 0.2807629517 -1.473212387
-0.137487021 0.2683064184 -1.330256028
-0.1667642595 0.268111032 -1.326414146
-0.1940230185 0.2689954251 -1.329155187
-0.8056050241 0.2843199968 -1.530849993
-0.201066666 0.2549562498 -1.349358335
-0.5262312785 0.2639379072 -1.440827905
-0.7265077177 0.2646663769 -1.440409395
-0.3661042222 0.2630149446 -1.44090666
-0.4866744326 0.2638107389 -1.441251704
-0.6064899432 0.264118024 -1.440632335
-0.6461638897 0.2636160483 -1.439272839
0.4261235285 0.2620525486 -1.44127156
0.3536926788 0.2611683939 -1.441130951
0.1133386352 0.2616744443 -1.441017992
0.03323088422 0.2616944748 -1.440476315
-0.006124533196 0.2620636271 -1.440947153
-0.0461007157 0.2623796946 -1.44157817
-0.2191181163 0.2623153618 -1.440537689
-0.2861593545 0.262188549 -1.440216132
-0.3658061509 0.250056923 -1.418369224
-0.407377241 0.2501296565 -1.418562071
-0.4481643369 0.250074332 -1.417806669
-0.566915994 0.2500979998 -1.417062858
-0.7260046189 0.2504530763 -1.416353849
0.8690199852 0.285710007 -1.633700013
0.4271366656 0.2489606669 -1.41862665
0.3140677727 0.261029184 -1.440749455
0.312357274 0.2482609085 -1.419590896
0.1938706245 0.2485512514 -1.419174999
0.1544712509 0.2486091666 -1.418829173
0.03642142123 0.2488778947 -1.41877894
-0.00693854866 0.2492306251 -1.418931246
-0.216737999 0.2498520002 -1.41789
-0.2446752171 0.2492304347 -1.41865652
0.7862700224 0.27748999 -1.655099988
-0.1905859086 0.2442254546 -1.339527271
0.8169799894 0.2820824943 -1.664662495
-0.7262506504 0.2389607319 -1.396796747
-0.2860601786 0.2384208932 -1.399186311
-0.3661742147 0.2387681131 -1.399388051
-0.4061321255 0.2386415624 -1.398795003
-0.4462459513 0.2378874838 -1.396872395
-0.4860665616 0.2382353124 -1.397310623
-0.6061821143 0.2384936621 -1.397102115
-0.6467035634 0.2388000759 -1.397244697
0.1536348232 0.2367835295 -1.398490002
-0.006114316202 0.2378937636 -1.39951068
-0.2158449996 0.2378140001 -1.397711107
-0.2467887998 0.237575486 -1.39820686
0.8305342414 0.279724849 -1.654436372
0.4281780739 0.2368224772 -1.398941284
0.353717988 0.2367909745 -1.398913413
0.3133741102 0.23690816 -1.399125153
0.8161325008 0.292777501 -1.662149996
0.07350747967 0.2374600001 -1.399254972
-0.04605215414 0.2374845746 -1.398933511
-0.7884899974 0.2263199985 -1.419100046
0.808213532 0.2751223533 -1.669094114
0.4291422764 0.2168349582 -1.363983739
0.3133836903 0.2171383928 -1.364596431
0.1538270391 0.217003743 -1.363783241
0.1139103315 0.2169191304 -1.363605977
0.832567529 0.3102909133 -1.646912366
0.07360261271 0.2173358112 -1.364153405
-0.00656885946 0.2174276266 -1.363997978
-0.04630721169 0.2169941798 -1.363042854
-0.1661110142 0.2240112213 -1.350882948
-0.2017378548 0.2233535329 -1.355229338
-0.2860834676 0.2179201507 -1.362920605
-0.3656882558 0.2184284614 -1.363268719
-0.4062987504 0.2183758855 -1.362892188
-0.4459633156 0.2177520785 -1.361714044
-0.4862734074 0.2183785478 -1.362689383
-0.5262162147 0.2183841079 -1.362202158
-0.7258801171 0.2190703513 -1.362489476
-0.4415527764 0.2066816671 -1.342761106
-0.5250633359 0.2071341661 -1.343233337
-0.6077018191 0.206887275 -1.342300025
-0.6469639977 0.2071579993 -1.342873343
-0.6869725019 0.2069700003 -1.342650002
-0.7257093675 0.2070712503 -1.342800014
-0.7502616545 0.2066849992 -1.342783332
-0.2456609092 0.206185452 -1.343045462
-0.2871714819 0.206307037 -1.342944445
-0.3260832 0.2066371983 -1.342996001
-0.3700990948 0.2067636373 -1.343204542
-0.04833011746 0.2492564733 -1.419441181
0.4296333333 0.2053356667 -1.344876679
0.3525286842 0.2054094735 -1.344994743
0.3118587868 0.2053784854 -1.344615152
0.2736066679 0.2054375771 -1.344190901
0.1947182351 0.2055738235 -1.344941171
0.0738230511 0.2052884618 -1.344515385
-0.007503516328 0.2054489995 -1.343616668
-0.04393796861 0.205550313 -1.344018742
-0.08572707474 0.2055317491 -1.343679994
-0.1672309513 0.2053554757 -1.345569051
-0.2020345152 0.2056174201 -1.343922584
-0.7528420402 0.2187456814 -1.363622722
-0.8019799888 0.2224449962 -1.431250036
-0.08610532848 0.2175390049 -1.363964671
-0.7893499732 0.199180007 -1.376699984
-0.4065054502 0.1941278966 -1.320891849
0.1933545898 0.3789545075 -1.641503274
-0.4468326575 0.194437928 -1.320944145
0.8094149977 0.3302625045 -1.662399977
-0.3266476135 0.2814920467 -1.472674994
-0.5265580715 0.1941137218 -1.320593274
-0.6059807914 0.1943325743 -1.320363374
-0.6458140291 0.194422488 -1.320652736
-0.6854777467 0.1944724605 -1.320711521
-0.7259298385 0.1948960427 -1.321075403
0.07334104992 0.1917506691 -1.320284939
0.03354716531 0.1918011988 -1.319787193
-0.006428432844 0.1927110083 -1.321342437
-0.0869587168 0.1923826604 -1.320616742
0.114541476 0.2486742856 -1.419190469
-0.1262096476 0.1923985903 -1.320634362
-0.1657511059 0.1918263402 -1.319977872
-0.1283099949 0.4176900089 -1.461199999
-0.2068703318 0.1926914939 -1.320544397
-0.2459555835 0.1934106663 -1.320897084
-0.2860492953 0.1931638592 -1.320246475
-0.3262617089 0.1938115381 -1.320932906
0.3537477524 0.1914279811 -1.320587615
0.3137169333 0.1917234663 -1.320670223
0.1138095108 0.1913790799 -1.319505444
0.8615800142 0.2253199965 -1.643100023
0.4304345973 0.1911200576 -1.319778736
-0.08557270671 0.1747801275 -1.289634391
-0.1262850943 0.1747166666 -1.288903772
-0.1670129727 0.1744230411 -1.28890136
-0.1282799989 0.4181199968 -1.460000038
-0.2064161037 0.1745639611 -1.288318185
-0.3259586663 0.1750523033 -1.287789697
-0.3657201212 0.1749674845 -1.287463191
0.1941988641 0.3996910209 -1.675722728
-0.4461912041 0.1752972297 -1.287517469
-0.3258483947 0.2632303742 -1.441308561
-0.5264310608 0.1750229141 -1.287421852
-0.5665330619 0.1752492499 -1.287160629
-0.6067746729 0.1753844085 -1.287035526
-0.6462573955 0.1751690844 -1.286749997
-0.6862429604 0.1753656575 -1.286524345
-0.7261815953 0.1755931942 -1.286918758
0.4314633017 0.1734686796 -1.290217919
0.3934749595 0.174411574 -1.291000002
0.3134412806 0.1742885597 -1.2908872
0.2338009158 0.1743780154 -1.290631292
0.1543105605 0.1746998599 -1.290775523
0.1138949062 0.1739427338 -1.289184174
0.07387997848 0.1742861153 -1.29004677
-0.8509500027 0.1895300001 -1.446099997
-0.7536388215 0.1934491168 -1.322967645
-0.4464848906 0.1634916662 -1.267368884
-0.6060010783 0.1637079734 -1.266935137
-0.7258256727 0.1638501496 -1.267326869
0.8106497354 0.3175705256 -1.653323685
-0.5266480928 0.1636153568 -1.268023813
-0.6463087296 0.1642414289 -1.267690479
-0.006426168441 0.3086913613 -1.522078907
0.1936084037 0.162697563 -1.27018235
0.0729758482 0.1628228004 -1.270003198
0.03421087103 0.16290879 -1.270246778
-0.08660574803 0.1629695129 -1.270180488
-0.1251015203 0.1629410402 -1.270197598
-0.1665231824 0.1634649091 -1.270128182
-0.2461987622 0.16320938 -1.269284069
-0.3254317647 0.1633548034 -1.268389209
0.3533399991 0.1622586201 -1.270209483
0.2731039072 0.1623582813 -1.270356246
-0.1274199933 0.4075500071 -1.423499942
-0.205936325 0.1630706844 -1.269111102
-0.3662805722 0.1628943807 -1.267315239
-0.6855269784 0.1487197338 -1.240706664
-0.3663423954 0.1476769201 -1.240948288
-0.405926894 0.1476182501 -1.240663213
-0.4461015244 0.1479581416 -1.240745353
0.8070883229 0.3063795865 -1.665512507
-0.5263009013 0.1483039999 -1.241228236
-0.5663031156 0.1484042624 -1.24091598
-0.7253385479 0.1487824546 -1.240280452
-0.6613174975 0.4118250012 -1.699674994
-0.8366299868 0.1521800011 -1.364500046
-0.1664353309 0.1469953641 -1.24128808
-0.2061851579 0.1468238948 -1.240664211
-0.3265583915 0.1476571426 -1.241247501
0.3933665864 0.145268915 -1.241076304
0.3532656919 0.1451023717 -1.240587356
0.03368306531 0.1460794161 -1.240823709
-0.08577596606 0.1461174572 -1.240483389
0.1135589151 0.2368268752 -1.39833693
-0.1264755299 0.1462466555 -1.240564571
0.3533985907 0.2169179752 -1.364294482
-0.2462364861 0.1467836152 -1.240461149
-0.7505406618 0.1455693324 -1.240373333
0.3135354009 0.1447685764 -1.240448173
0.2339729053 0.1452228681 -1.240595095
0.1139482603 0.1452533219 -1.239877057
-0.7481674999 0.1334800012 -1.218400031
0.4543733299 0.1358566682 -1.232566675
-0.006152565852 0.1319699997 -1.216147525
-0.04573264954 0.1317802058 -1.215222686
-0.1658519418 0.1318935923 -1.214986405
-0.2463993142 0.1317827456 -1.214092148
-0.3656481898 0.1323705174 -1.213874135
-0.4065449083 0.1320904543 -1.213230911
-0.5258450425 0.1324281735 -1.212695654
0.1369950026 0.3661850095 -1.621850014
-0.6466347078 0.1323782347 -1.21265588
-0.6864053723 0.132637963 -1.21269722
0.3945835212 0.1313007044 -1.21685352
-0.7570628588 0.2818742873 -1.473903584
0.354485075 0.1309480585 -1.215926864
0.315254069 0.1309455939 -1.216432202
0.2323912652 0.1311378483 -1.216083542
0.1144362817 0.1311137174 -1.215333339
0.07450494469 0.1315560449 -1.215859335
0.03288315788 0.1315505263 -1.215643159
-0.0860054844 0.1314449476 -1.215547422
-0.126116 0.1315221003 -1.214852003
-0.2070314546 0.131924545 -1.214898185
0.6760100126 0.1423949972 -1.381550014
-0.9961299896 0.1566399932 -1.59010005
-0.7743700147 0.1201599985 -1.232900023
-0.7256269917 0.1213110529 -1.19300451
-0.2062302692 0.1203509863 -1.194399107
-0.2465642649 0.120593697 -1.194505686
-0.28638227 0.1206891306 -1.194529465
-0.3661277611 0.1205261196 -1.193571642
-0.1334075015 0.5175474957 -1.804825008
-0.4463472359 0.1204817589 -1.19387035
-0.5263059103 0.1206941434 -1.193248066
-0.6060618246 0.120722805 -1.192764641
-0.6859581259 0.1212602776 -1.192878468
0.153612202 0.1197887666 -1.195729957
-0.04654709518 0.1198078926 -1.194040911
-0.08669112969 0.1200121433 -1.194817856
-0.4860841976 0.1204601552 -1.193717622
-0.5661492215 0.1205643887 -1.192541113
-0.1218044446 0.4124003704 -1.694881475
-0.853760004 0.1275400072 -1.351799965
-0.5257769754 0.3237318618 -1.546402332
0.3136720269 0.1195480179 -1.196351102
0.2337204033 0.119532242 -1.196060986
0.1934133183 0.1195948675 -1.196064159
0.07339819113 0.1195239028 -1.194471135
-0.00601484761 0.1197181782 -1.194582998
0.3934924998 0.1193546759 -1.196658336
-0.9202799797 0.119380001 -1.424349964
0.4576659997 0.114683866 -1.197126667
0.7010899782 0.1280599982 -1.594799995
-0.6858676631 0.1035195146 -1.161705474
-1.037999988 0.1282400042 -1.597000003
0.07169022627 0.4113932262 -1.694796781
0.7208520055 0.1353300005 -1.635420012
0.5858399868 0.1099099964 -1.38499999
0.3578499854 0.276730001 -1.336899996
-0.36605494 0.1021875848 -1.161371213
-0.4862897801 0.101672915 -1.160131134
-0.5257503608 0.1021617385 -1.160421572
-0.606038073 0.1026047054 -1.160899272
-1.00030005 0.1216899976 -1.533499956
-0.1664653011 0.1016994506 -1.161364203
-0.2462915017 0.1019412919 -1.161320676
-0.4133049995 0.3677349985 -1.621299982
-0.2863160903 0.1019510623 -1.161171389
-0.4063780059 0.1017351398 -1.160528871
-0.1324874995 0.5054433296 -1.762666682
-0.4461353354 0.1019770799 -1.160569327
-0.7238862841 0.1036498805 -1.161803418
0.8552200198 0.1282999963 -1.658150017
0.8285908451 0.1298291658 -1.658375005
0.7285850048 0.126685001 -1.626650035
0.4579917648 0.09929276565 -1.167958807
0.4319339991 0.08832893272 -1.139573336
0.3930866619 0.08843750134 -1.14048332
0.3941320797 0.09903434979 -1.160858084
0.3539317206 0.09930265915 -1.160681818
-0.5271322736 0.2926877258 -1.490916666
0.3083057921 0.08852657833 -1.139431577
0.3141038788 0.09969436537 -1.161617628
0.2747614256 0.0886798572 -1.139785716
0.2735174361 0.09960874359 -1.160771201
0.2333732647 0.09961755593 -1.160605
0.2365246129 0.08830830741 -1.139007688
0.1930689474 0.08851031645 -1.138468422
0.1935540294 0.09989660895 -1.161233236
0.152301112 0.08825849949 -1.138994455
0.1536151138 0.09978948311 -1.160401139
0.114367286 0.08881721406 -1.139492857
0.1135118355 0.1002932522 -1.160941077
0.07385428944 0.09981581665 -1.159623781
0.07474799992 0.08848333359 -1.13915926
0.03125061284 0.08871016147 -1.13799354
-0.006653609471 0.1003075995 -1.15977983
-0.005054138008 0.08893002357 -1.138880951
-0.04632163957 0.1007523489 -1.16066628
-0.08983655989 0.08917874008 -1.138243997
-0.1666314894 0.08937953222 -1.138663825
-0.2445837932 0.08953003457 -1.138258615
-0.2859181475 0.08952505569 -1.138118525
-0.4061347797 0.08934082577 -1.137806524
-0.1315654557 0.4933545481 -1.720463634
-0.4441941176 0.0897604509 -1.138094114
-0.5260859168 0.08947908164 -1.137338782
-0.5660691282 0.1020747292 -1.160155161
-0.5670790193 0.08952970613 -1.13793137
-0.6071054095 0.09001341022 -1.137208192
-0.6451405383 0.09018276765 -1.137323226
-0.7234865168 0.09050376049 -1.136965223
0.3243200004 0.08718979955 -1.14205997
0.1135899991 0.08715840131 -1.141639996
-0.03744733334 0.0871576642 -1.141666651
0.8412849903 0.1264824979 -1.662524968
0.1940016672 0.08702350035 -1.142516653
0.1538965573 0.3788676237 -1.641562298
-0.7567799985 0.08477200195 -1.149049997
0.7587090926 0.1210850911 -1.62926
0.7258756235 0.1160862502 -1.602462493
0.5925674886 0.09851599857 -1.372400016
-0.4861033819 0.0787948813 -1.118272661
-0.285774029 0.07811231949 -1.118770747
-0.5259327966 0.07891288511 -1.118263603
-0.6066158674 0.07868991343 -1.117273626
0.8333886096 0.1132433681 -1.639045838
-0.1660641449 0.07803912765 -1.119271589
-0.5661550962 0.07875644349 -1.117831128
-0.686239583 0.07857196239 -1.117057737
-0.08608782507 0.07761540125 -1.11897679
-0.2461499702 0.07805152438 -1.119121209
-0.326272828 0.07789818758 -1.118072025
-0.3665503917 0.07793823201 -1.117899399
-0.6479844451 0.4166988896 -1.719755544
-0.1200778655 0.3797017972 -1.641867415
-0.4459715085 0.07869360685 -1.118250879
0.3934945452 0.07675958137 -1.12088734
0.1930872467 0.07679583482 -1.119962899
0.7909257867 0.1319531587 -1.653797369
0.07351842942 0.07710729698 -1.11938357
-0.4061945229 0.07787403177 -1.11717102
-0.1278113335 0.3046506663 -1.367706656
0.6908199787 0.1169300005 -1.553200006
-0.8340499997 0.07299300283 -1.232599974
-0.7252069097 0.1326476286 -1.212897936
0.3538696323 0.07630238954 -1.120286505
0.3132982345 0.07659009597 -1.120136221
0.417506665 -0.4075949987 -1.431516687
-0.8180849999 -0.3765799925 -1.394225031
0.7128937576 -0.4625793651 -1.604921692
-0.007237799931 -0.673879981 -1.221300006
0.3935214339 -0.4426144788 -1.640017827
0.468764901 -0.46145719 -1.605332025
0.3936253975 -0.4623062388 -1.604782301
-0.8148599863 0.2380400002 -1.47300005
0.911406676 -0.1572100023 -1.620266676
-0.2463664197 0.1749504937 -1.288809876
-0.4459196003 -0.457247899 -1.600776087
0.3526810291 -0.3574049482 -1.79020825
-0.6083251209 0.3241007328 -1.545760978
-0.8499940038 -0.5133319974 -1.503119993
0.6566400051 -0.3859300077 -1.726160002
-0.691406953 -0.3618190067 -1.255500661
-0.7785336533 -0.6531865311 -1.136842003
0.7937813628 -0.4628716472 -1.605110796
0.7118700147 -0.121100001 -1.685099959
0.7532462455 -0.4633669631 -1.6038105
0.6743293695 -0.4625005763 -1.604356542
0.4801266591 -0.2101199975 -1.31400001
-0.8138900101 -0.1663099974 -1.285250008
0.8741430579 0.09363846983 -1.61608368
0.2339354803 -0.4622980385 -1.601558004
-0.3661088894 -0.4284611096 -1.653958891
0.1537728306 -0.4615431622 -1.601585666
0.153423621 -0.0004452099953 -1.128119227
-0.2866930743 -0.4588782599 -1.601042966
-0.4463461162 -0.6382249589 -1.271792975
-0.8703699708 -0.4214499891 -1.414700031
0.4660824984 -0.4528187439 -1.562124997
-0.4857569024 -0.3969491997 -1.709632998
-0.6062055978 -0.6812475923 -1.18949248
-0.7989333471 -0.4983233313 -1.452499986
0.8273985726 -0.105659999 -1.512657114
0.07625716738 -0.4729750057 -1.582066675
-0.2857190682 -0.4703293013 -1.577672091
0.1489000022 -0.008744800463 -1.143300056
0.8318170704 0.3484364306 -1.638325589
0.07391630885 0.2620337688 -1.44140157
0.6739302531 -0.4739880003 -1.585659993
0.634354312 -0.4746496052 -1.585460782
0.5857300162 0.3400099874 -1.485200047
0.4894999862 -0.3113699853 -1.388700008
-0.5260458629 -0.610250711 -1.321245426
-0.8831549883 -0.3375099897 -1.470899999
-0.9543600082 0.2251600027 -1.64199996
0.6765411033 -0.3678066664 -1.672677795
-0.4463009873 -0.611295531 -1.320794571
0.193900255 0.05727528902 -1.085138811
0.3934802864 0.4113662847 -1.695245705
0.7151895222 -0.4743909531 -1.5851143
0.8691454607 -0.5481479222 -1.453349357
0.07337768059 0.1459684719 -1.240566319
-1.080534785 -0.4687486952 -1.572593469
-0.954949992 -0.3403314309 -1.529257127
0.1935246155 0.1451605352 -1.240263213
0.7540121642 -0.4744113506 -1.584948643
0.64896667 -0.03474033376 -1.465600014
0.5599787062 -0.4746541958 -1.584470972
0.3033800051 0.3662550002 -1.622174978
-0.9633064202 -0.6500397694 -1.24262385
0.1936174739 -0.0001060257156 -1.130110032
0.2309834795 -0.4739604333 -1.583082609
-0.7876666784 -0.3799533248 -1.284833312
-0.3663345467 0.4196518145 -1.711727262
0.276639998 -0.004202899989 -1.141499996
0.5219474882 -0.4551475048 -1.530600011
0.03363494834 -0.30205569 -1.884751723
-0.806919992 -0.3768419981 -1.359879994
-0.76764549 -0.4689646493 -1.571754929
-0.5263632116 0.3804186607 -1.641608936
-0.9693838615 -0.4652677253 -1.571863632
0.07321972506 0.04106229471 -1.074480465
-0.526179746 0.4000029119 -1.674222788
-0.9486699899 -0.4658466677 -1.534133315
-0.6858256236 -0.4081487507 -1.355012491
-0.5662333341 0.1634630951 -1.267210721
0.5011366705 -0.4479566614 -1.48756667
0.03357816007 -0.2874224007 -1.909154663
0.5576550066 0.02763450053 -1.325200021
-0.7756000076 -0.4612671435 -1.5300857
0.1911282338 -0.6737194131 -1.2227353
0.4696399868 -0.05062000081 -1.339900017
-0.7140811764 -0.3820817652 -1.268276469
0.2337271347 0.2170332021 -1.364088202
-1.055799961 0.07041300088 -1.519899964
0.3539920479 0.1738682791 -1.290392623
0.4015849993 -0.416614078 -1.390784213
0.5425157808 -0.398194687 -1.715839069
-0.5262961156 -0.5957016526 -1.347823969
0.6802620216 -0.362528191 -1.631823404
0.3937469828 0.2614158586 -1.440897038
0.416425997 -0.4431200027 -1.449199986
-0.8897383312 -0.4600616644 -1.516600013
-0.7517549992 -0.4648199975 -1.481249988
0.6022599936 -0.1723349988 -1.516650021
0.3937125773 0.2170607364 -1.364345401
0.4278044022 -0.4118781631 -1.356702564
-0.1662903966 0.3219830116 -1.297376134
0.4051016196 -0.4099752379 -1.362184288
0.355703822 -0.4736097061 -1.584641173
0.6993449926 0.09907549992 -1.529500008
0.593987951 -0.5054057768 -1.529531055
0.4349499941 -0.2203699946 -1.359650016
-0.4465672769 -0.5963504748 -1.347788431
-0.7701299787 -0.4153800011 -1.509899974
-0.6060924325 -0.4809661007 -1.556520645
0.4913720012 -0.5178239942 -1.50453999
0.4272400141 -0.2846100032 -1.378700018
-0.28668173 0.1635521157 -1.269599997
0.4087523832 -0.2381557145 -1.258173801
-0.6446650028 0.4355449975 -1.79035002
-0.8644899726 0.1467899978 -1.391600013
-0.7132651232 -0.1716326879 -1.152046876
0.7950843671 0.1162650488 -1.634779611
-0.7265668622 -0.4807916171 -1.556321573
-0.9139540526 -0.4792474335 -1.55620811
-0.8584433198 -0.4438933333 -1.439366659
0.1149365004 -0.4301682495 -1.657564995
0.2338859465 0.000343900345 -1.132039393
-0.8298280001 -0.4101859987 -1.362059975
-0.6378525048 -0.3325762516 -1.824884374
-1.00615876 -0.4800763317 -1.555428996
-1.114073681 -0.4829647384 -1.548678941
-0.4061904818 -0.4811596797 -1.557713251
-0.821750015 0.1935650036 -1.412349999
-0.8458154527 -0.4935172769 -1.357763648
-0.2463156834 -0.48213982 -1.558623744
0.2472399995 0.3663900048 -1.622749984
-0.5146325231 -0.02363024978 -1.102150023
-0.7529436223 -0.3756131492 -1.247251967
-0.6967160106 -0.08941639811 -1.192560005
-0.3664377863 0.1938660424 -1.320935746
-0.2464895809 -0.5436611395 -1.445755515
-0.2061045054 -0.4824138831 -1.55885641
0.9272383253 -0.3850933313 -1.572100023
0.1133701979 0.07679712538 -1.119434262
-1.006899953 -0.2846899927 -1.643900037
0.4338046794 -0.4628252762 -1.603980279
-0.2069994938 -0.4148068094 -1.680986382
0.4316010177 0.1309174569 -1.216569498
0.4988200068 -0.1532099992 -1.307600021
-0.7330639958 -0.4606480002 -1.475889993
0.07385159766 -0.4838448687 -1.560254901
0.7942608407 0.1456680009 -1.675745268
-0.9196400046 -0.5437699954 -1.366216679
0.432302627 0.1188467678 -1.195889903
0.5178700089 -0.2925499976 -1.431200027
-0.7817999721 -0.4500199854 -1.398100019
-0.9074400067 -0.4633800089 -1.439599991
0.2339786782 -0.4854693213 -1.560611525
0.9061982663 -0.4922095994 -1.552473326
0.8335662455 -0.4875160714 -1.560066521
0.1933564115 -0.6177555497 -1.320623447
0.3533159324 -0.4862666455 -1.56077491
0.5134537113 -0.662556401 -1.241959333
-0.7237414249 -0.4519564318 -1.447349991
0.7168550119 0.1040301248 -1.568412498
0.5936888936 -0.4875259535 -1.56134199
0.5544486752 -0.4878316874 -1.560221688
-0.1264496305 0.0778577841 -1.118773291
0.7532589315 -0.4875246902 -1.560257613
-0.8035061497 -0.4090469227 -1.317776918
-0.7129703323 -0.07627836615 -1.09920001
0.5369499922 -0.04540400021 -1.328649998
-0.6995841712 -0.4526650012 -1.402191659
-0.678540338 -0.4137952931 -1.315506724
0.1540722382 0.1450276174 -1.239951265
0.4270485714 -0.4447654138 -1.375082707
-0.6885461048 -0.4111614641 -1.285417681
-0.8546466629 -0.1263999964 -1.32676665
0.3937881876 0.2369614372 -1.39895188
-0.9138399959 0.09193500131 -1.368399978
0.4494000077 -0.4302299917 -1.383000016
0.5339499712 -0.3578499854 -1.64989996
0.8688512519 0.04626900051 -1.544125006
-0.8507514426 -0.4551942859 -1.400542855
0.1135533324 -0.4173921621 -1.680523554
-1.113123333 -0.4948095009 -1.527645002
0.5545280916 -0.5474771408 -1.451792064
-0.4859571639 -0.3243903488 -1.84085274
0.7534549654 -0.5057360548 -1.528659183
0.4081850052 0.4402799904 -1.745099962
-0.0453080599 0.08928023934 -1.138645999
0.7138266231 -0.505329351 -1.528783768
0.3140106267 -0.3281272767 -1.840884294
0.6733583332 -0.505575696 -1.528237501
-0.1278814704 0.2634002952 -1.355523534
0.1939937551 -0.5036646721 -1.526623143
-0.6057992501 -0.6684760422 -1.213351244
-0.793108557 -0.4170014262 -1.281442864
-0.1260679308 0.3878210362 -1.35336552
0.3138907735 -0.373181454 -1.760751365
-0.9745100141 -0.06878899783 -1.471199989
0.3938126613 0.308890576 -1.522299282
0.4254453174 -0.5033813506 -1.528104505
-0.3662863468 -0.5434660647 -1.444948227
-0.3258971865 -0.5683483117 -1.400875193
0.07414402116 0.02140955907 -1.111936301
-1.086082565 -0.4974086241 -1.521963758
-0.006223359806 -0.5028588356 -1.524784728
-0.4860140396 0.1480284616 -1.240942691
-0.0458749999 -0.5025010288 -1.524569117
-0.8862633308 -0.3351333439 -1.639400005
0.4331374137 0.0992569766 -1.160709656
0.5090466539 -0.2978166739 -1.562966665
-0.2065320858 -0.5022748018 -1.522642715
-0.725796107 -0.6377123788 -1.270645946
-0.2551199943 -0.5114949942 -1.500649989
0.8202993684 -0.4520049989 -1.625399999
-0.2464508325 -0.5022450674 -1.522211001
0.8319537583 -0.4635666886 -1.602411466
0.4742724855 -0.3998960122 -1.715331371
-0.7346199751 -0.07175400108 -1.285599947
0.6616200209 -0.07481099665 -1.567199945
-0.3258420717 -0.6278395871 -1.29261716
0.4030715807 -0.4622552614 -1.428410524
-0.1664045125 -0.6700567679 -1.216351829
-0.2985950038 -0.511452511 -1.500524998
-0.7132700086 -0.3609400094 -1.37590003
-0.7662279326 -0.4122140508 -1.680865518
0.1936953212 0.2166461985 -1.363285382
-0.3661987982 -0.5016832133 -1.520872079
-0.7141799927 -0.1450300068 -1.237800002
-0.6119599938 -0.5123599768 -1.503200054
-0.6059917793 -0.5001156499 -1.521189384
-0.6462939848 -0.5001039518 -1.52100245
0.3925892107 0.3237942096 -1.547881581
0.432478843 -0.4862655223 -1.561592163
0.2337431689 -0.4422516876 -1.638157201
-0.4847572703 -0.3550331809 -1.786411372
-0.8197699904 -0.5032140017 -1.486199999
0.1935678379 0.261495567 -1.441200001
-0.3581045487 -0.5135745569 -1.502272714
-0.2858868748 0.1474184373 -1.240906597
0.4046902875 -0.2524750365 -1.279500717
0.5571100116 -0.2433100045 -1.475299954
-0.6053124233 0.2501639381 -1.416393948
-0.8531999318 -0.5019487831 -1.51532027
0.1135591576 0.3792360629 -1.642012599
-0.6069989994 -0.3547377482 -1.785802504
-0.2149000019 0.3982099891 -1.393999994
-0.8064399958 -0.193295002 -1.294450045
0.8893241584 -0.1563699991 -1.636733323
-1.006056597 -0.4993887157 -1.520562242
0.1936708294 0.2367199448 -1.398538673
-0.3603350073 -0.511680007 -1.498750031
-0.3261247874 -0.6822983917 -1.192355289
-0.7406399846 -0.1167099997 -1.269600034
-0.801692572 -0.4533937722 -1.603116002
0.4901799858 -0.1001200005 -1.271000028
-0.3947299974 -0.5131571378 -1.503442849
0.273350187 -0.5042843927 -1.526885977
-0.413508 -0.5106606762 -1.49920667
-0.606569485 0.2188678288 -1.363075427
-0.4517914227 -0.5131414277 -1.502685734
-0.005977411261 -0.4829853225 -1.561259659
-0.6839599907 -0.5128850043 -1.502250016
-0.6647971443 -0.3559042769 -1.287157144
0.07328443229 -0.3560110818 -1.788571615
0.1534250137 0.07691138572 -1.119686957
-0.6856960058 -0.5102610052 -1.499989998
0.2736777978 -0.3995568559 -1.714596226
0.07349996417 -0.3265082985 -1.841694329
-0.7664830421 -0.4563529167 -1.60067667
0.354303983 0.4267522653 -1.719699999
-1.011765566 -0.5103683372 -1.499833326
0.3531606793 -0.5750692082 -1.400855524
0.1125894529 0.1624149997 -1.269706257
-0.1261750008 -0.5138728871 -1.505178846
-0.4901833336 -0.5138700207 -1.501899978
-0.2862309566 0.3994271273 -1.674562771
-0.6070966664 -0.5109128555 -1.498733333
0.4732138926 -0.5471803068 -1.451638927
-0.8426808367 -0.4088858341 -1.402974993
0.1140061506 -0.3566670924 -1.788708141
-0.008042763384 -0.5140636825 -1.506050877
0.4178759992 -0.5146894991 -1.50837
-0.1658377172 0.1204863012 -1.19500091
-0.4860537682 -0.3685007181 -1.760614352
0.2737709453 0.307904258 -1.521266216
0.495024994 -0.3276199996 -1.547800004
-0.8461225496 -0.5227448221 -1.480054978
0.393852624 0.280784041 -1.473781822
0.1526880527 0.1310697407 -1.215464937
-0.4069549618 -0.005967124734 -1.093776368
0.4338766634 -0.4534466763 -1.494766672
0.1941330303 -0.5156436346 -1.506739392
0.1527475997 -0.5151125344 -1.505869335
-0.4468022408 -0.4394405459 -1.632979999
-0.6464607856 -0.4557625877 -1.601506663
0.7545312385 -0.5169449516 -1.509104125
-0.6826928647 -0.3748381698 -1.277552521
0.7137250453 -0.6866498084 -1.20064003
-0.7722596897 -0.6571993791 -1.159592576
0.6341516198 -0.5168045034 -1.509788289
-0.08596152378 -0.4151236909 -1.681230258
0.4873649925 -0.1667049974 -1.441949964
-0.8011100292 -0.1221100017 -1.245499969
0.8737715699 0.05862404933 -1.565980988
0.5543735108 -0.516703066 -1.509088286
0.3938681176 -0.5160598005 -1.508222775
0.113893046 -0.5732562905 -1.400552173
0.6679682342 -0.3735798703 -1.614382353
0.5138973691 -0.5315573021 -1.481295395
0.274774317 -0.5154632946 -1.507817039
0.03355779085 -0.4606753893 -1.601307797
0.5125998875 -0.3574480462 -1.789121843
0.1534035922 -0.5038023681 -1.525772242
-0.8477233301 -0.4551399971 -1.36254999
-0.1667562113 -0.5443713272 -1.445568358
0.1130062863 -0.2907853552 -1.904285716
0.513992801 -0.5164969009 -1.509019996
0.4152675048 -0.517049998 -1.493899971
0.6729186122 -0.5168008313 -1.509955553
-0.8392325044 -0.4624100029 -1.336950004
-0.1658045894 -0.5260014737 -1.48011445
-0.6926569441 -0.4384324712 -1.297530589
-0.8579175025 -0.4914100021 -1.396124989
-0.4036776136 -0.01775668068 -1.103031815
0.3709599972 -0.432404995 -1.661650002
-0.4470356117 -0.5537822769 -1.424675442
0.7939240944 -0.547474952 -1.452648574
-0.725880561 0.3573663538 -1.601534584
0.07372404338 -0.5144860874 -1.506178262
-0.5662875893 -0.4809122278 -1.556941818
0.4014753233 -0.4956523922 -1.434923912
0.1950005004 -0.6302911229 -1.29617625
0.3543022617 -0.6003254015 -1.355789778
-0.7133969338 -0.4577308042 -1.309775804
0.4050739236 -0.4900589864 -1.406183544
-0.7197142857 -0.5201364876 -1.48342917
0.1133240946 -0.461380727 -1.601624727
-0.7890779972 -0.4474899948 -1.279320002
-0.6888357292 -0.4908164239 -1.3286649
-0.8148794847 -0.5253940174 -1.47335043
-0.875180006 -0.07936400175 -1.532299995
-0.923026171 -0.5233561735 -1.472660496
-0.5271923516 -0.469621029 -1.577123526
-1.006018108 -0.4685568959 -1.576122415
0.8299800158 -0.1023299992 -1.555400014
-0.2065951707 -0.5251696298 -1.481426138
0.287045002 -0.4715399891 -1.580000043
0.4330061791 -0.589185844 -1.375352811
-0.3666015154 -0.5239032124 -1.480492729
-0.1298773165 0.3695614636 -1.289912189
-0.7310275137 -0.1695174985 -1.282949984
-0.7923554927 -0.4655679971 -1.56433
0.03352290358 0.308673447 -1.522048964
0.4544799924 -0.08300100267 -1.322199941
-0.5661932312 -0.5228734713 -1.479419588
-0.4822546641 -0.5113093297 -1.499466666
0.5650051406 -0.4647392848 -1.598368571
-0.1897599995 -0.04179949872 -1.537400007
0.8736759104 -0.5055371209 -1.528300759
-0.6463620413 -0.5228614971 -1.480287755
-1.04588296 -0.5219002684 -1.478411209
0.2731827065 0.1193527984 -1.195922017
0.3586599926 0.08716599892 -1.141766628
0.2678299993 -0.6711699963 -1.219175026
0.8991327174 -0.527035209 -1.490291667
-0.8437319994 -0.4029890001 -1.439240003
0.1138149461 -0.3719733337 -1.760925224
-0.005876724014 -0.5270146503 -1.481312869
0.4261743381 -0.5182826429 -1.417901885
-0.6614850163 -0.06467250176 -1.15019995
-0.7330200076 0.3677200079 -1.621199965
0.07363654752 -0.5279120393 -1.480975976
0.6429285941 -0.01204859526 -1.448915166
-0.5667720179 -0.626950838 -1.290264534
-0.7354349941 -0.4214612544 -1.438224986
0.3914697526 -0.5296227557 -1.481699647
0.1188960001 0.4373000026 -1.751119995
0.1138787535 -0.3023826503 -1.884210242
0.4032169361 -0.4546938712 -1.397462906
-0.1415469989 0.2466209993 -1.339230001
0.3137259004 -0.5304127935 -1.481120808
-0.6066105353 0.1485102058 -1.241543213
-0.3635470275 -0.5547122947 -1.425297294
0.2729842938 -0.5298446755 -1.481096175
-0.04548272732 -0.5979823641 -1.351874092
0.3941945089 -0.6302515677 -1.297276469
0.8320898152 0.3851518995 -1.631422222
0.7934439032 -0.5322440254 -1.480264229
-0.222057499 0.3110162523 -1.518259376
-0.8710611131 -0.4992433323 -1.318766673
-0.8458999991 -0.07519599795 -1.279899955
0.7121300101 -0.09344699979 -1.674200058
-0.3372500017 -0.5114199817 -1.500400007
0.7538617906 -0.6637116094 -1.243102087
0.3550199866 0.3341999948 -1.439399958
-0.2462948994 -0.5248005499 -1.48056609
-0.6463377283 0.2189698295 -1.362981245
-0.289385885 -0.3137076444 -1.864494113
-0.446487322 -0.007574348191 -1.092270084
-0.647023937 -0.4694389398 -1.576698489
0.6330624407 -0.5325679388 -1.48037732
0.0324590001 -0.3555152161 -1.789114487
0.5537414136 -0.5321712757 -1.480491725
-0.8077859998 -0.449398005 -1.239420009
-0.6779231318 -0.4955202538 -1.356211867
0.6339399054 -0.5478269515 -1.452582861
-0.2861528479 -0.5016279474 -1.521553975
0.3544149549 -0.3738120454 -1.760225909
0.5938499986 -0.5476272271 -1.45149328
0.5129334061 -0.5475597809 -1.451236957
-0.72656848 0.3107467198 -1.521678402
0.3551204285 -0.3888048564 -1.734364288
-0.2862879076 -0.4821900374 -1.558678709
-0.4457748997 -0.6268969002 -1.291885498
-0.3264571031 -0.6127496311 -1.320906896
-1.085422694 -0.4795891493 -1.555012768
0.5950824916 -0.2075899988 -1.523799956
0.4312895504 -0.5386550006 -1.431174361
-0.1664095942 0.3556321537 -1.281770292
0.4072472217 -0.4431390274 -1.3744125
-0.1311074799 0.2256717886 -1.35568374
0.3132966263 -0.546712652 -1.450834336
-1.046926891 -0.4981634035 -1.521991169
0.5007348334 -0.4390548338 -1.643903337
-0.3282499909 0.4425200075 -1.798300028
0.2740901756 -0.5469078828 -1.450401763
-0.04615913713 -0.6148832094 -1.321338373
-0.6865044363 0.2640776247 -1.439905
-0.6464774546 0.10312952 -1.161662907
-0.7643500119 -0.09008025005 -1.172100008
0.03390559791 0.2371195109 -1.398252714
0.03360558561 -0.5451685128 -1.449085135
-0.5666798248 0.3804492924 -1.641463718
-0.7775487778 -0.4401640831 -1.195412239
0.1139211457 -0.5035330699 -1.525719289
-0.9932537526 -0.4250200018 -1.637712494
0.6121099889 -0.009772549849 -1.442700028
0.1128735561 -0.3873996904 -1.733919586
-0.911255002 0.1565850005 -1.470249951
-0.006591209891 -0.5449363449 -1.448495378
-0.4862414147 0.194319469 -1.320748232
-0.04675468271 -0.5445600008 -1.447408432
-0.730454841 -0.5020764499 -1.491199989
-0.2455571422 0.3230751011 -1.546204078
-0.08595243051 -0.5447818041 -1.44696639
-0.2063838231 -0.5442774644 -1.445436032
0.8327039399 0.09422456022 -1.610604546
-0.5673824996 -0.512895003 -1.502324998
-0.325985534 -0.4817523282 -1.558334353
-0.7652183813 -0.4542639409 -1.231454552
-0.5661538436 -0.5425583629 -1.443631674
-0.6783668954 -0.3784020687 -1.310279316
0.7135284957 -0.6013019923 -1.357165448
-0.6467494023 -0.5952970034 -1.347875997
-0.9225196387 -0.541298198 -1.442124227
0.1940470301 -0.4616379704 -1.602533456
0.7132932739 -0.5169444545 -1.508438183
-0.2055225701 -0.6698574294 -1.215756984
-0.7845333417 -0.5527466734 -1.425599972
-0.6828264982 -0.4570250005 -1.354494992
-0.8362899944 -0.497785002 -1.327662498
0.3935997132 -0.4864815717 -1.561024648
-0.5660169768 -0.5005885229 -1.521428176
-0.5672706683 -0.5109259963 -1.499326674
0.3931458631 -0.5048447649 -1.527463881
0.03403034608 0.2808453839 -1.473184617
0.4874100089 0.1894050017 -1.147049963
0.1933715853 -0.599433849 -1.354146036
-0.04732173736 0.3357504037 -1.568280809
-0.6871410439 0.2930770156 -1.490759707
-0.6461464343 0.07907001644 -1.118090571
-0.1659745491 -0.6827432998 -1.193423081
-0.6931693415 -0.5157260021 -1.339469997
-1.009781577 -0.5529210505 -1.424642099
0.754251429 -0.6306842821 -1.299400006
0.4079014286 -0.08342245514 -1.17524197
-0.9187928009 -0.5535991979 -1.424396
0.03350744002 -0.5870700019 -1.372378259
-0.245903384 -0.3555232314 -1.787040003
-0.7795480915 -0.4510361893 -1.17622858
0.1139274261 -0.4841973832 -1.561021142
0.5978149921 -0.005630050058 -1.413875014
0.07344325542 0.3079128851 -1.520876508
-0.4044287027 -0.5543290911 -1.425240272
0.415564999 -0.3840500116 -1.412349999
0.4656800032 0.04168728579 -1.121642845
0.4391633305 -0.3095666634 -1.303244445
-0.677355597 -0.553760798 -1.424656
-0.2462750653 0.02086435837 -1.088405814
-0.8445242567 -0.5540136213 -1.423982983
0.1128992267 0.2051822719 -1.344125003
-0.1264991152 -0.5553930966 -1.427679646
-0.7846499979 -0.4949450046 -1.428900003
-0.2462226665 -0.5552594281 -1.426648578
0.03347442249 0.1742335214 -1.289658452
-0.3268260492 -0.3860904836 -1.730717744
-0.04500109528 -0.5560346813 -1.427837297
-0.2063637574 0.1014089095 -1.160897173
0.5284900069 -0.3632149994 -1.490350008
-0.9247992449 -0.4532585847 -1.596716042
0.07394120555 -0.3986524267 -1.713112495
0.5225849748 -0.6714199781 -1.220550001
-0.2062931726 -0.5558832683 -1.426269231
-0.8801864258 -0.5397750012 -1.411378562
0.4286134843 0.02569884871 -1.117590932
-0.890126269 -0.481574013 -1.55273521
-0.8036424965 -0.2989649996 -1.478175014
-0.7322400014 0.0468276677 -1.066233357
-0.246664081 0.2811709189 -1.472452037
0.5531277207 -0.5585470175 -1.4321807
0.4343467521 -0.5590072723 -1.431492854
0.3537772519 -0.5583133328 -1.431068424
0.03333726315 0.2053115787 -1.343665794
0.4549100101 -0.03824400157 -1.170799971
-0.7416412383 -0.5467937551 -1.389350004
0.8641410491 -0.5589396496 -1.433683716
-0.2861754624 -0.5242939585 -1.480890461
-0.9329900146 -0.263590008 -1.680500031
-0.7381834735 -0.5695177789 -1.389593057
0.5138117967 -0.5587606591 -1.432333534
-0.2856155081 -0.3977991537 -1.710828816
0.153774042 -0.5460742499 -1.45006114
-0.7608014047 -0.5450020524 -1.396525644
0.1212990927 -0.4733800048 -1.5829182
-0.8057579994 -0.4765579998 -1.196340013
-0.1265085234 -0.6140880094 -1.321490379
0.2336678978 -0.5740700799 -1.400811591
0.1537727487 -0.5286535668 -1.480987718
-0.6465835428 -0.3968021876 -1.710035421
-0.2061841589 0.07789460325 -1.118868317
0.4267849922 -0.02558900043 -1.23755002
-0.7852799892 -0.5164800286 -1.261899948
-0.445671727 -0.5230094134 -1.480068079
0.6338483473 -0.6201094398 -1.321863716
0.352837155 -0.4622453446 -1.603487501
-0.9470400214 -0.6277999878 -1.259199977
-0.6056503358 0.3567109251 -1.601152938
0.07482254329 -0.5990316865 -1.353093416
-0.7510299981 0.1003588755 -1.167299986
-0.1669309137 -0.5974361918 -1.350891877
0.2333442357 -0.3565371769 -1.790134116
-0.6462695335 -0.4125137874 -1.680696167
-0.8847945035 -0.6118404925 -1.248860002
0.6373754193 -0.6309787532 -1.298179169
0.3538317528 -0.4425577781 -1.639303846
-0.1946199983 -0.4728699923 -1.581699967
0.03359565023 -0.6600654616 -1.239793346
-0.2875471876 -0.3866694217 -1.730493388
-0.7284459061 -0.6634972339 -1.209336599
0.8341660779 0.08084778488 -1.59134683
-0.4055871382 0.2069600012 -1.342923806
-0.4430349982 -0.02126561105 -1.103672226
0.8020376976 -0.6328692253 -1.304407734
-0.6776480728 -0.05084360478 -1.120874217
0.2336286235 -0.5043891279 -1.52627615
0.2696445795 -0.4739208358 -1.583545829
-0.3671402342 -0.470410697 -1.576883718
0.8085976541 0.3470298443 -1.649001563
-0.5266845319 -0.5847454311 -1.367504685
-0.6805686073 -0.5389497247 -1.397794445
0.3539795723 -0.6302417047 -1.297638297
-0.1261032183 -0.6829728608 -1.194418423
0.3145817749 0.3543237909 -1.600127424
-0.9689613049 -0.6365303281 -1.269004349
0.4583172726 -0.4783824249 -1.572003036
-0.3663436074 -0.4819046281 -1.55742706
0.5408700109 -0.2125699967 -1.428500056
-0.9696608178 -0.6253646973 -1.287637415
-0.7575530052 0.115772599 -1.200080013
-0.1660985316 -0.6135874603 -1.32151562
-0.6063727631 -0.5658696302 -1.40107236
-0.4064956889 -0.3435795002 -1.806913126
-0.8891207628 -0.6367610881 -1.268738043
0.2741855436 0.2364566285 -1.398378283
0.3138335059 -0.642004784 -1.278129619
-0.7259664532 -0.6098321222 -1.320289109
-1.004899979 -0.3512699902 -1.627500057
0.5431724787 0.03111199988 -1.295450002
-0.5263549341 -0.4810574887 -1.556765019
0.3442312479 0.08847237378 -1.139687479
-0.4467979237 -0.4700728284 -1.576826419
-0.3262357509 -0.6386832239 -1.273199268
-0.118293334 0.3233276625 -1.54673332
-0.7130100131 -0.2549499869 -1.300600052
0.6740049415 -0.5595798236 -1.432412788
-0.006080081598 -0.6594182359 -1.239682534
0.5950319057 -0.6738827011 -1.223920633
0.4736513321 -0.6426964326 -1.278758923
0.8335956754 -0.5321566124 -1.48129143
-0.2463001544 0.2174751814 -1.362873577
0.3128260849 0.001418579617 -1.135136792
-0.6842803711 -0.5409910736 -1.445470248
-0.2462625363 0.05827050242 -1.082499999
-0.3657217055 -0.6384821818 -1.272786905
-0.9560499787 -0.415109992 -1.576099992
0.5931353807 -0.532446327 -1.480710184
-0.00763256287 -0.4291643051 -1.656347689
0.2735202839 -0.462356545 -1.602224388
0.5067700148 -0.2904033363 -1.40716664
0.7139707084 -0.6436623711 -1.280503845
-0.4871025016 -0.4694404691 -1.577609384
0.3135742165 -0.5586582725 -1.431420538
0.5071400106 0.05851849914 -1.174549997
-0.7784871176 -0.5741127113 -1.230157624
0.5749300122 -0.04274899885 -1.394600034
-0.7102000117 -0.4839400053 -1.419800043
-0.9208765211 -0.4982556506 -1.440013041
0.4224800012 0.3240976456 -1.547841184
0.3931020821 -0.6423919181 -1.27817233
-0.6463066658 -0.009806703322 -1.080476971
0.1933732841 -0.588211197 -1.373788802
-0.7071750164 -0.4141650051 -1.377749979
-0.4468205488 -0.6686620089 -1.214199539
-0.2460011054 0.262410895 -1.440555785
0.5536887757 -0.5759587457 -1.400213456
0.3942350506 -0.5890264941 -1.374192779
-0.4860450376 -0.4563409253 -1.601597411
0.3536190536 -0.6420876471 -1.278791354
0.8601704141 -0.4680658368 -1.592812493
-0.4056349993 -0.3133060008 -1.862290001
0.4510099888 -0.0280089993 -1.290799975
-0.2060529887 0.02238308022 -1.088707519
-0.9691066071 -0.5949071444 -1.346049998
0.5555900037 -0.4105550051 -1.565249979
0.5943851972 -0.6427122816 -1.279807808
-0.7665621383 -0.5463521438 -1.364449986
-0.2467655158 -0.5976441226 -1.349741238
-0.3265460363 -0.5436125012 -1.44436393
-0.126564635 0.205502195 -1.344729275
-0.1261028975 -0.5022811305 -1.523384806
-0.8907099962 -0.6039666732 -1.159100016
-0.9193527798 -0.6209694379 -1.202411115
-0.3654575477 -0.5967370433 -1.349533334
0.786387137 -0.6318000044 -1.299300006
-0.4860447391 -0.5232023854 -1.480158497
-0.6466412673 -0.6260983096 -1.290478873
-0.8459983369 -0.5344766676 -1.355216662
0.4497900009 -0.6322100163 -1.304200053
-0.8381244807 -0.5944944846 -1.34714483
-0.7478781776 -0.3721609061 -1.219154542
-0.865079999 -0.5942900181 -1.110499978
0.2339326665 -0.5999621118 -1.354257035
-0.9299522542 -0.6176522547 -1.240467733
0.03284189191 -0.6707381107 -1.218263513
-1.046519996 -0.4687884005 -1.574426676
-0.909226656 -0.5857833227 -1.249566634
0.3381600082 -0.3148500025 -1.861199975
-0.1259632526 -0.4830186153 -1.559572665
-0.8035473317 -0.6154095014 -1.239171674
-0.6060444248 -0.6376715581 -1.270555275
0.4100399911 -0.1390500069 -1.262699962
0.5188502318 -0.5054165915 -1.526233333
-0.1924990736 0.3233911108 -1.298501843
-0.7939200103 -0.2836250067 -1.323950052
-0.8853311075 -0.4876683338 -1.40231667
-0.7619149983 -0.4508924931 -1.371950001
-0.7929370016 -0.4584155008 -1.193545002
0.07340781361 -0.683791506 -1.196229204
-0.5678871487 0.2073871419 -1.343114282
-0.6857967805 -0.6536617165 -1.24015572
-0.08781062476 0.412551 -1.696209997
-0.1715066644 -0.03481816687 -1.317083339
-0.2459778013 -0.6391367007 -1.274035392
0.6078383643 -0.4108022451 -1.65016122
-0.8866745995 -0.6523788621 -1.238987443
-0.167292619 -0.5138345276 -1.504021429
-0.8342820048 -0.4613300025 -1.286899996
-0.2865347445 -0.5437235388 -1.44570584
-0.4862349007 -0.5849764547 -1.367081673
-0.09086599946 0.46074 -1.858800054
0.7138867207 -0.6634115587 -1.243509015
-0.5256654854 -0.6686266143 -1.2136751
-0.2857733331 0.4123138449 -1.695415387
0.2736531885 0.1918548905 -1.320681661
-0.08616625762 -0.4594423082 -1.601370903
0.1945356349 0.130637465 -1.215261963
-0.6061802908 -0.5954468279 -1.347862502
-0.7633651376 -0.3709339976 -1.271054285
0.736800015 -0.43404001 -1.661200047
-0.8383740028 -0.6105399966 -1.205059989
-0.6463777878 -0.6813803627 -1.189490329
-0.9106077751 -0.62690111 -1.16322222
-0.6460558347 -0.6092942745 -1.321710217
0.5936957275 -0.662841265 -1.242113365
0.3938386192 0.1920270475 -1.321296192
0.4271579226 -0.3681528024 -1.331730437
-0.9189783712 -0.4937200006 -1.52141709
0.4030369362 -0.3382380638 -1.351717741
0.8332760036 -0.559910186 -1.432508753
0.489470005 -0.2096100003 -1.469699979
-0.1265770354 -0.3705613725 -1.761414598
-0.7969675002 -0.6112183395 -1.157722913
0.8578777843 0.3721144431 -1.62358888
0.403368232 -0.1349480953 -1.233353738
-0.8606083294 -0.5407533248 -1.39411666
-0.2468455831 -0.3865490824 -1.73059833
-0.4072671291 -0.6271841541 -1.292239487
0.5959549844 -0.04041850008 -1.433950007
0.3976055082 -0.5384153262 -1.442931523
-0.7179533243 -0.4174600045 -1.396466653
0.5403200189 -0.3789933324 -1.674666683
-0.5262424252 -0.5227298684 -1.480260656
-0.04585710658 0.3785777055 -1.640740165
0.1553887038 0.2925927783 -1.494533334
-0.6742722936 -0.563952771 -1.399864192
-0.8740341846 -0.6651446965 -1.159288773
-0.405590197 -0.6386421661 -1.272461027
-0.766246696 -0.6093634457 -1.321120448
-0.686943762 0.4161087461 -1.717337504
0.4339700043 -0.6714299917 -1.220600009
-0.2467304619 0.2925764625 -1.492490774
0.5535464379 -0.619984252 -1.320301436
0.3935280208 -0.6186905472 -1.321804425
0.5129740034 -0.3883351424 -1.73402
-0.006170919059 -0.2863812363 -1.911241576
-0.6858844236 -0.4807852764 -1.556453762
-0.9068300128 -0.3809449971 -1.703050017
-0.4062946637 -0.6559899245 -1.239878172
-0.5298350006 0.4394849986 -1.799500018
-0.7658319409 -0.6263063255 -1.288859182
-0.8841292013 -0.6805394464 -1.188101536
-0.5659530383 0.218437624 -1.362197238
-0.6829460025 -0.6804139972 -1.180659986
-0.04712151739 -0.5143660358 -1.505025864
-0.1665425434 -0.5023823703 -1.522957045
-0.006548860601 -0.3019407308 -1.883792696
-0.6865059388 -0.4999954513 -1.521154165
0.07380608287 -0.3447128284 -1.80882138
-0.8482370684 -0.6239946515 -1.288826748
-0.285478754 -0.2888941665 -1.905435426
0.3535580599 -0.6624375454 -1.240472078
-0.4061782529 -0.3243609531 -1.841132803
0.79179616 -0.4742307686 -1.585456426
-0.9687604902 -0.6075237223 -1.321456393
0.5451099873 -0.3975900114 -1.540699959
-0.4380199909 0.4534499943 -1.849600017
0.5022299886 -0.03175399825 -1.398100019
-0.3264636662 -0.5014102015 -1.521980665
-0.4045514812 -0.4694572218 -1.577311112
-0.04600544981 -0.4403945453 -1.636953107
0.2735477908 0.4000701152 -1.676309304
-0.07064100355 -0.4724900126 -1.585999966
-0.4463070067 -0.6556989958 -1.239549627
0.4751850069 -0.1273550019 -1.394749999
0.4713985665 -0.671567159 -1.2200143
0.4026176275 -0.3749112709 -1.356543353
0.3539192193 0.3089879436 -1.52250993
0.5519198486 -0.3868477286 -1.732987879
-0.5681965273 0.3238089123 -1.54587827
0.9122287482 0.09339752514 -1.6169375
-0.6871656453 -0.5760150893 -1.367418735
0.4241591184 0.2928088246 -1.49101176
0.4024575017 -0.6714624986 -1.218999982
0.4672866762 -0.09248833358 -1.35650003
0.5533381289 -0.6629073438 -1.241009931
-0.5665055332 -0.5661068142 -1.400693454
0.4339666315 -0.6626263123 -1.24108284
-0.2118923214 0.002556551419 -1.098401785
0.1936770164 -0.6843473631 -1.197445545
0.1133605926 -0.5452439826 -1.449917592
0.594240333 -0.589203665 -1.375933331
-0.7110379934 -0.1549419969 -1.140639997
-0.1171288709 0.2808612898 -1.472190324
0.2739160494 0.1444536654 -1.239730962
0.193471267 -0.4846935001 -1.560888336
0.07363210168 -0.6602440327 -1.239728333
0.1138549303 -0.4415231733 -1.637455653
0.2341012689 0.02374441723 -1.120476647
-0.04596696916 -0.6398540254 -1.275702785
0.3136668826 -0.6849017848 -1.198726994
-0.7224422097 -0.4838188854 -1.447744449
0.4235359702 0.3086076125 -1.52108507
0.3936329779 -0.6626278256 -1.240613963
0.5099623785 -0.4276985696 -1.655004768
-0.008503198433 -0.6704695839 -1.217787505
-0.8402878472 -0.5027764269 -1.496221423
-0.900410004 -0.5666274913 -1.315193757
-0.6022199988 -0.5512999892 -1.419199944
0.4301304283 -0.02448500616 -1.145127615
-0.726225733 -0.6813036709 -1.189353761
-0.4862633985 0.08936644018 -1.137704008
0.5936412758 -0.6859559779 -1.200085092
0.7215657149 -0.3453710707 -1.667096419
0.4095466634 0.3177033265 -1.112166643
0.5937386658 -0.4626591431 -1.604382381
-0.2860871447 -0.5132128554 -1.503964296
0.858545907 -0.5718571773 -1.410489743
-0.9153699875 -0.2359499931 -1.632200003
0.4811897109 -0.5336646234 -1.476329485
0.5939498883 -0.5591676532 -1.432717881
