# .PCD v0.7 - Point Cloud Data file format
VERSION 0.7
FIELDS x y z
SIZE 4 4 4
TYPE F F F
COUNT 1 1 1
WIDTH 1362
HEIGHT 1
VIEWPOINT 0 0 0 1 0 0 0
POINTS 1362
DATA ascii
1.90221 -2.246326 -4.601051
2.999653143 -1.97558 -4.387625
3.701058286 -1.993027714 -4.132033857
-3.888971111 -2.516339333 -2.020449889
-1.723987143 -2.481780286 -2.598821
0.4654733333 -2.431479333 -4.696407667
-3.271515217 -2.623173826 -2.208293174
-3.79257 6.718794 -6.754051
-3.280294444 -2.990160444 -1.712493222
-2.577419394 -2.720807515 -2.205051606
-3.77243625 -3.132191 1.823609
-1.935986071 -2.778739929 -2.385781
-0.79344 -2.931401 -2.402601
-3.302755357 -6.080023857 2.715064
1.402445 -2.522177 -4.68644
0.6762525 -2.920781 -4.5869185
2.303083714 -2.681130571 -4.411095
3.003112286 -2.690624857 -4.255821571
3.694558529 -2.696048941 -4.056862471
4.00438 -2.996226 -3.921081
5.0118664 -2.7131636 -3.472655
-2.400550667 -3.415316 -1.953717667
-1.889659714 -3.453319429 -2.140867857
2.604922 -5.958912 -0.021005
-1.190673714 -3.451593429 -2.130998143
3.007297143 -3.405128571 -4.151329857
3.818387 -3.503484 -3.869593
4.408024286 -3.436717429 -3.709692143
0.56128 -5.744496 4.487899
-4.977183333 1.059994 -1.764801
-2.132495 -4.340741 -1.808171
3.449476 -3.956284 -3.953357
-1.849291667 -4.143644667 -1.965484
-1.187040286 -4.178040571 -1.985368714
7.191343548 -4.149991484 -1.490154548
-2.131275 -4.554241 -1.813076
0.658725 -4.424796 -3.902631
0.9225369697 -4.102502667 -4.15235797
1.608905429 -4.110518857 -4.217759857
2.309968857 -4.11758 -4.099569571
2.956989524 -4.01640219 -3.996985762
3.088673571 -4.295278857 -3.881018857
3.754402333 -4.165569333 -3.819394
4.411416 -4.152385143 -3.620904143
2.71162 -4.553526 -3.956591
2.273765 -4.5727535 -3.9663735
-2.33135 -5.060276 -1.860686
-2.68796 -5.904276 3.770819
6.514589286 -4.838254214 -1.436329929
-2.51227 -2.380906 3.074229
1.110076667 -4.558599333 -3.987707667
3.024169259 -4.801355259 -3.695279519
1.565361053 -4.897054947 -3.808032579
6.37905 -5.28146975 -1.2241735
3.016153143 -5.473097429 -3.335212143
3.7985975 -5.62895475 -3.18474975
2.317941429 -5.974443857 -3.332274571
2.99279375 -5.924316 -3.2858535
2.9721544 -6.1003112 -2.8362374
6.07934 -5.848936 -0.375106
1.80161 3.241494 -1.227796
-1.903173333 3.260277333 -1.198809333
3.53006 3.285454 -1.215151
1.59478037 -5.68864637 0.6363712222
3.029078571 3.312665429 -1.218119571
2.333103333 3.305094 -1.219654333
6.14374 1.118794 -1.762741
-0.95607 -6.063079333 -3.968094333
3.468965 -0.214696 -3.951736
-4.368945 -2.438261 2.457644
7.243398333 -3.143026 -1.086451
5.40968 -1.738541 -3.215961
0.3332925 1.877444 -2.563011
-3.325898438 -5.47154225 -1.684630688
6.243668333 -0.7511826667 -2.580326
0.1892092308 -6.088502154 -3.584404077
4.4173025 -1.287546 -3.751736556
1.516793125 -0.857049125 -4.71473725
4.143314 -2.539832 -3.976215
0.931057 -0.823277 -4.7268535
-0.604932 -5.805022 -3.945385
2.078124 -1.73293 -4.658119
-3.200097273 -6.062491455 -1.922751909
-1.14821 1.876610667 -2.556254333
1.619966 0.318094 -3.6081078
1.6056435 0.665204 -3.284901
-2.582325 -6.0939925 -2.068545
-0.85686 -1.007276 -3.269831
-2.768563846 -6.171447538 0.554459
-5.179261765 -0.5625701176 -1.976806882
-5.983818571 -0.6574222857 -0.7477784286
-5.79913 -0.638281 -1.224896833
-2.5962024 -6.1535624 -0.1262106
-5.525966538 -0.6343867692 -1.568570615
-1.189535172 -1.332397034 -3.010457207
-5.15332 -1.162313 -1.93019
1.615021667 -6.044816 3.533390111
-5.963668571 -1.323904286 0.654285
1.607965556 -5.994050444 3.958501778
-5.939239714 -1.329848 -0.04514128571
-5.646455 -1.49849475 -0.82572475
-5.403826286 -1.369410571 -1.471325286
-4.604980909 -1.894131455 -2.058072364
-5.776254444 -1.740422667 0.6619856667
-5.774575 -1.744142667 0.006937333333
3.0052252 3.083038 -1.590747
2.710095 0.450794 -3.256251
-0.7705973333 -2.032308 -3.040640333
-0.3437059259 -2.005401185 -4.169937667
-3.117806667 2.562560667 -1.853234333
-5.227192 -1.941515 -1.3698435
1.624609412 -5.469413647 -3.512665412
-6.43509 3.847094 0.377154
3.560581333 -3.313916667 -3.996519
-6.461483333 5.363227333 1.118619
-5.523311333 -2.101602 -0.062535
-5.406874 -2.048526 -0.7264764286
-5.02638 -2.354726 -1.041571
-4.843144444 -2.154749333 -1.614408778
-0.222905 -2.565081 -4.010891
-6.460625 5.361594 0.7692865
0.1632355556 -2.733143222 -4.339757944
5.3967 -1.28638225 -3.171741
-4.837701333 -2.845624 -0.1081633333
-4.737485 -2.745915667 -0.7313086667
-4.31373 -2.968926 -1.047791
-4.04800619 -2.800254571 -1.500469095
2.316126 -5.466116 -3.436898429
3.06049 0.410172 -3.212543
-4.379645 -3.106171 -0.664456
-3.981935667 -3.291087 -0.7606203333
-3.861032727 -3.174924182 -1.260642818
-0.6449008696 -3.484776435 -2.256705348
-0.05253642857 -3.581655286 -3.701493857
0.3172925 2.549444 -1.868326
-3.235548571 -3.326976952 -1.334562905
7.803693478 -3.500007739 -1.251600565
-3.316301724 -3.66973531 -0.07545789655
-3.232582424 -3.579471455 -0.8104776667
-2.75593619 -3.522005048 -1.584711952
-0.3156669697 -4.134761152 -2.851026758
-0.165592 -4.163024 -3.234219
-3.019558065 -4.18139471 -0.7939842258
-2.691322381 -4.621924095 1.923778524
-2.615802703 -4.766920865 -1.605801
2.293609667 -6.096807 -2.843338333
3.006038214 2.081126143 -2.694464929
-0.4619842857 1.874365429 -2.556849571
-1.823537297 -4.890734919 -2.057212351
-2.584270526 -4.799933368 1.247814
-2.93588 -5.290606 1.074939
3.699398077 -6.019272154 -2.924442538
-2.01825975 -5.50849375 -2.22295725
-1.798687353 -5.577068353 -2.914186882
-1.6444875 -5.74558975 -3.412881
-1.829171538 -6.092192154 -2.853744462
-1.877291892 1.452604811 -2.728596135
0.4292905 -2.6146175 3.975904
-5.095615 1.748744 3.822779
0.1852871053 6.469346632 -2.174591789
-5.848383214 -1.259789929 1.309346143
4.436482258 -2.005229226 -3.768012935
0.3931983333 -3.885939333 -3.991359333
-3.61357 2.424494 -1.811951
-1.680277143 6.500651143 -1.868068143
0.3278275 -3.440888 3.41107975
-2.725085833 -3.670065167 1.374309833
-5.77119 -1.119042667 1.784625667
-0.1699 -1.237526 3.768529
3.662012581 -0.6399805161 -4.041493903
-0.3074833333 -4.407446 3.153835667
-2.863775 -4.611451 0.177394
0.62313 -0.319566 4.431294
-2.596585135 -4.753365459 0.6057306216
-3.246973871 -4.769573097 -0.07978003226
-5.825367 0.693254 1.784846
-3.279254687 -1.968213187 -2.691185375
-5.8662525 4.710094 3.183074
-5.28497 -0.657594 2.628438143
-2.4482135 6.891144 -0.807755
-0.5523008571 -4.767335143 3.484774429
-5.958518077 2.921413231 3.938417846
1.61168875 -5.640121833 -1.486878083
-5.893477143 3.559874952 3.949309476
-5.631765 -0.6932919091 2.167575818
2.114845625 -1.2632985 -4.660561625
3.713917143 -4.806252786 -3.527634929
-6.3062 2.946555905 3.612206619
0.4709525 -1.7279935 4.5550365
-5.612117273 0.1225894545 2.224541727
-3.495636667 -2.296599333 -2.468674333
-6.021999412 4.901152824 2.711129294
-4.434795882 -5.645734235 -0.7455998235
-3.201615882 1.325976353 -2.619758059
-5.883382593 0.06963807407 1.895636407
-0.176525 -5.627341 4.475109
1.618974231 -5.661450615 -0.7874975385
-6.209652632 3.577562421 3.430006632
2.308713214 3.567376143 -0.08744135714
4.62293 -5.963186 -0.3052595714
-4.849435238 4.940308286 -1.600288143
3.747445 0.09036663158 4.114039263
-4.7247225 -1.309252111 -2.288362389
1.312406 6.690614 -2.231625
-4.589217727 6.052380364 -0.04100418182
5.704152692 -3.387859462 -2.779365231
-4.57382 2.659094 4.472169
5.168558 -5.821772 -1.027849
-0.4052866667 8.322003524 -2.165962905
-6.245521795 2.100129897 3.532260026
-1.174006286 -2.04563 3.334542714
3.011357576 -3.452966909 4.659604455
-4.718688286 3.588499714 -1.678534143
1.009386207 8.477476759 -3.464874448
-4.048999592 8.41494298 -6.448174878
-3.304157105 2.876851895 -1.718077053
-3.991960222 2.886207333 4.131841667
-3.60959 7.574094 -5.954341
-0.2333704762 -3.378730286 -3.427233857
-5.385926667 0.8077912222 -1.476090167
1.619631429 -6.015545524 -3.400954333
3.7050205 1.486924 -2.811967
-3.028592 -5.63861 3.785395
-5.377657407 5.783212519 2.015833074
-3.41592 1.599589238 -2.424200048
1.649890357 -0.5119649286 -4.549194214
-6.40537 4.927534 1.50676
5.127611143 1.485376857 2.826876429
-1.9175436 2.294114 2.1804886
5.66649 -5.906022667 -0.6019543333
-3.505912857 6.400108286 -3.553436357
4.166545 -5.186861 -3.280926
-4.126199444 1.677088444 3.447322333
-4.567358182 7.497494 -3.755276455
7.122984412 -2.757961 1.820701353
-5.9821932 5.476758 1.9894866
0.8873836667 -6.000755333 4.106771
2.314847 0.840644 -3.177416333
-2.354087143 6.845465429 -1.267843857
-3.312056571 0.7373934286 -2.742039857
-0.44331 2.515469 -1.8228985
-5.131358333 6.621035667 -3.546825167
-1.871205952 3.621636857 -0.1029669524
4.31446 3.349344 0.609192
-0.035772 -2.970202 3.013861
-1.95651 7.085470667 -1.54949
-5.413539429 2.842345429 -1.414932714
-3.828975882 -6.036708353 2.048736647
-2.823702 4.211247333 -1.214255667
6.285075 1.34755025 1.818252125
-3.99813122 -0.6293503902 3.480858512
-2.531888571 2.659022571 -1.965390286
-3.449417647 6.059346941 1.245960176
-5.835112727 1.505548545 -0.5346146364
0.9033520455 9.069353091 -2.909279409
-5.147667222 7.954171778 -5.565253778
-2.72613 3.534308815 2.57492937
-1.230700968 -4.711814387 -2.258649387
-0.417882963 -0.04722637037 -3.309452111
-1.4784 5.310994 -1.063201
-6.3445925 4.941999 0.477274
2.328271875 0.492559625 3.926682125
-4.289125 -2.989886 1.5478415
-0.4885644118 5.866476353 -1.425055412
-4.746378571 5.650563048 -3.598322905
-4.9916025 5.731961857 -1.5462185
4.79874 -5.2589735 -2.642181
2.299542424 -5.676345697 -2.217807667
-4.40635 6.065294 1.678729
3.654826897 -2.691319103 4.579131414
-6.351734848 4.249042485 1.339753848
0.7721085714 -2.798538143 4.306593286
-3.254778857 -3.222314571 1.968481857
3.000724857 -0.5810685714 -4.251027571
-6.534658947 2.857115053 3.287260579
0.9342955882 6.542002824 -2.106958353
-1.921403784 5.665361568 -1.456560459
-3.90543 5.90048775 -0.7848735
-3.507265357 6.398376143 -4.254209929
-3.984990882 1.407752824 2.924824294
-1.863895556 2.759816222 -1.99084137
3.033427353 0.2220387059 4.226525765
-2.489586 6.338299 -1.305969
0.903617 -0.455526 -4.554751
7.926222857 -3.436117905 1.991737333
5.794948205 -1.351246769 -2.890201
-0.6006325 0.2596381667 -3.199100167
-2.402151852 3.667034741 2.130434926
-5.1681492 7.701898 -5.0348258
-6.001599143 4.943514 -0.07645528571
3.549675714 -3.252517429 4.569352571
-1.179669268 2.993637902 -1.510450756
2.968534737 1.477712421 -2.919607316
-6.173958919 0.07928562162 1.340507649
2.29556375 2.352044 2.9610365
2.313549394 3.497163697 1.317851121
-0.6610864706 -1.310574529 -3.557938647
7.932076538 -2.541071 1.499549769
-3.273618286 -0.6204288571 3.606888714
-2.012250513 2.809499128 1.925111821
-6.53056 2.3243565 2.041664
-5.38684075 1.575524 3.4542855
-3.9162 7.820103524 -5.64528481
2.392893333 -4.063486476 4.532751857
7.217638056 -3.404714056 2.130794556
0.9383123529 -2.051088059 4.629673118
4.422580263 -4.842916526 3.449662158
-1.89219 3.101331931 -1.546108586
2.289507 -4.799173 4.004122333
-4.67788125 1.71391275 3.911889
-3.583321429 5.907686857 -4.179176
-5.46405 5.952579 0.596304
0.2112190625 -5.56927475 4.506026188
3.072608947 2.313088737 2.928307947
-1.915717174 -4.106364696 2.883859217
-3.891269375 -5.568595687 -1.474956625
-2.723135676 5.664953459 1.311926838
-3.447928 -2.315988 3.023539
1.788178333 0.4945823333 3.854325667
5.519525 2.564369 1.0874265
-3.48334875 -3.0125485 2.264344
0.008754375 -3.4825335 2.9540615
-3.258584722 -2.038015167 3.256853167
-4.180222174 -5.350374261 -0.8507444783
-2.833335 5.599155111 1.869873444
-4.578055714 5.110058286 -2.825919571
5.331271429 -2.064976714 3.635477571
3.14688875 -6.044861 2.95674025
-5.56144 1.521916222 -0.8864917407
3.67616 3.305434 1.806941
-1.649542143 -3.418393143 3.126514
3.031128824 3.116317529 2.193827824
-1.617921429 7.024494 -1.895116714
-2.8051652 -4.1296984 0.0936554
-1.803012857 -2.6830685 3.187741857
-6.384055 2.882424 -0.316434
-5.211967273 -2.526966455 0.5977794545
-6.602668857 2.898788286 2.032617
-6.04065303 2.221269758 -0.7504494848
3.784871333 -3.503140667 4.331006
-1.221165294 2.666070471 -1.984339824
-6.466863333 4.537860667 0.823289
-4.722302 4.318474 -1.576133571
7.774618889 -4.046023222 -1.258092667
-1.210350857 0.7606302857 -2.998823
-1.57481 -3.893666 3.085519
-1.999101429 6.365229714 -1.657036357
-1.234626316 3.274936105 0.477009
5.199195789 2.267575579 -1.539113105
0.9039305714 -3.387972857 -4.459304714
-3.994847419 6.095326258 0.6126173871
2.331881389 1.472138444 3.392603167
-2.563671892 -2.052075459 3.305230081
0.1729136842 1.002162421 -3.168680474
-4.905691905 0.1023054286 2.911505667
-4.706457941 2.134661647 -1.615300706
6.0527 -5.844962667 0.8423323333
1.639891111 3.342438444 -0.7663876667
-5.399281667 5.945827333 1.337414833
-3.3581496 -5.493087 3.5286638
-4.90691375 6.000094 -0.17323725
0.1641272973 -2.747586541 3.428846297
-5.129094 7.510174 -4.483263
6.381601622 1.438518324 -0.7583185676
-3.566906667 6.921932889 -4.987183778
3.027313143 -2.07116 4.769124429
-4.036446429 2.224258286 4.127255667
-4.638927941 7.926199882 -4.985204824
-3.575147391 6.439772261 -4.915507522
6.638310323 -3.466313742 -1.48900229
-3.555328684 5.673930842 -2.845490737
-2.616134186 2.164863767 2.594781791
-5.39043 2.933258103 4.250974897
-6.262240556 4.272027333 2.727880667
-4.058916667 6.043760667 1.751699
-4.739269167 -0.5876648889 -2.371586
1.22584 -3.207046 4.473159
5.014237391 2.042350522 2.519517696
-3.099734667 6.273254 -0.6290496667
1.15884 3.269294 -0.600809
-0.4737727586 -3.462666 2.920054172
-4.690173103 6.090866414 0.6188424483
-1.910306571 0.7581937143 -3.001188429
6.058178333 -3.426740167 -2.396414333
1.625741143 -2.068188286 4.799164714
-4.636983864 5.663444 -4.292521
-0.4931342857 3.092899714 0.6154392857
0.9096319355 0.1986975484 -3.60484971
4.477542121 -1.98966903 4.318869606
-5.1322175 -2.4558635 1.172199
6.540249118 -4.128013647 2.289928118
6.13522 -4.358046 2.330224
0.2629821875 8.429272125 -2.814245688
-1.238283 0.093579 -3.155111
-0.47384 2.325397333 2.141654333
5.092856176 -2.050080706 -3.445971882
-2.32139 -4.144062667 2.510061667
-4.564358333 -2.546455167 -1.351424333
3.730965814 0.7810377209 -3.00268193
-3.928543667 -2.575202333 2.581223
4.270806875 -4.79327475 -3.340250375
-4.669232759 6.080656069 1.294583483
2.344044 3.330587333 1.846025
3.723893158 3.411367684 -0.793601
-5.085450833 5.506035667 -1.3167335
-5.56883 4.489464 3.644595
4.532832174 3.123646174 1.377396826
7.181035789 -4.788787316 1.994658211
6.0855 1.769654 -1.011575
-5.514407273 -2.066389333 0.6726626364
4.634621111 -5.694722111 -2.197121
-6.536911429 2.256394 0.060069
5.093648333 -5.510271556 2.7149165
-5.943118636 2.279598545 3.895381727
2.326184857 -1.369647143 4.861169
0.9435583333 -4.043346 4.039173722
2.326224074 -0.07278192593 4.606863444
7.299763846 -5.005157538 -0.8933486923
2.327454348 0.3049022609 4.277695522
7.210940476 -4.67511981 -1.319508619
-1.173727143 2.279379714 2.234865667
-2.274018 2.880854 2.293031
3.007930606 0.7997061212 3.510064455
1.619922963 3.384834741 1.312166778
8.415313846 -4.076468692 1.257366308
4.232488333 3.307077333 1.240203444
0.9172540625 -1.979585375 -4.779571625
6.794102222 -1.435948222 -1.715568778
4.569926667 1.613920667 -2.455897667
-2.579575882 0.7607969412 3.255286059
-4.898233684 -2.197661263 2.153578474
4.935144667 -4.076407333 -3.407361667
0.2861830769 -3.389493308 -4.147982923
-5.358450606 4.247354606 3.957372636
-6.270052 4.268802571 2.024600143
2.326415429 -0.6805054286 4.786999
-2.430980278 4.959030111 0.6374151111
7.09856 -5.316167429 -0.5934595714
-3.553738621 5.774242276 -3.546313069
-2.416026897 4.261449172 1.378595552
5.048016667 0.7244823333 3.332303722
0.8624985714 -3.413874776 4.145157571
2.326404571 -2.057612 4.943718429
-6.468465 4.539944 1.072634
-4.020442286 3.592868286 -1.756183571
4.403419189 -5.517022486 -2.929384514
4.10966 -4.474196 3.791939
-6.522312 3.452709 1.974294
3.671612143 1.404561857 3.165879714
2.342739574 0.7655131489 3.545794745
-3.305466071 -0.6243217143 -2.912012071
-0.70578 -4.561366 3.016169
-4.719502703 6.28776427 -1.524649919
2.287162414 3.458842276 -0.7565258276
-0.3690985714 -5.009175048 4.007307095
-3.893113333 0.05380733333 -2.638089333
-1.188615294 3.308279294 -0.08723129412
0.8938177273 0.9572303636 -3.170864182
7.001944242 0.05166581818 1.306159303
-1.686121429 7.501394 -0.9594938571
-1.921805938 -6.116678813 -2.168498812
-3.952865128 5.715663231 -4.953856385
3.010630625 3.63608775 0.6037415
3.027006286 -2.769828571 4.709941286
-3.69762 3.870894 3.047529
-1.127736875 3.18325025 0.8090465
6.392443333 1.454332462 1.311978231
7.297077778 -2.558495444 1.481172333
-1.882257941 5.096044 -0.7537942353
-0.4748207143 1.937251143 2.496304
-4.47563 7.166578615 -5.610342538
0.9459212903 1.438023032 3.235044806
5.847158125 -4.137869125 -2.19445725
-5.525041667 1.403047333 2.061174
5.049197429 -1.325204571 -3.420601857
-5.82436 3.320994 -1.172074333
-3.6896225 5.974769 -1.9368235
5.109929268 0.09069521951 -2.997602707
-3.325761034 -5.493178069 1.25906969
8.334512 -2.312152 0.076941
1.627420571 1.479808286 3.351070143
0.644233125 8.5115565 -2.416227875
-5.635765 2.039194 -1.063006
5.792045 -5.96720225 0.6027160833
4.423319143 2.151836857 2.700911286
3.427913333 1.861260667 3.104255667
-1.876903077 -5.493446769 3.521613615
6.91036 -2.612786 -1.292541909
-1.186964848 -6.094491455 -0.06694493939
0.1702897619 -0.5992307619 4.132256619
2.57531 -5.099466 3.734309
-6.187057714 -0.6406005714 -0.04794185714
-1.328028095 -0.7277569524 -3.129882429
5.217780455 -5.670325545 2.076866273
6.907771429 -0.1436245714 -1.274913857
5.122556889 2.908798444 0.6262412222
-5.78512 -1.078306 -1.148181
-4.093634286 0.8037673333 -2.385119095
6.138706667 -2.727939333 -2.475947667
7.21514 -2.049888 1.306601333
-5.708695 1.309494 1.641229
1.642831613 -3.410230194 4.599089645
5.81826881 -0.619128619 3.360301143
0.893638125 -4.894338813 -3.755221625
0.9056090476 -0.6488714762 4.702329476
-0.4975955 2.856584 1.3155225
8.27731 -4.583586 0.5744656667
-2.42118 1.868469 -2.541391
0.627714 3.205654 -0.130725
-3.434432439 4.968223268 -1.39114539
6.776847692 -2.030592154 -1.688054846
-0.4397085185 8.303601407 -1.536940259
2.33217 -5.650936769 -0.7878036923
-4.506958 6.438754 -4.987923286
-0.459968 -5.9826572 4.0356226
5.834157647 -5.713705412 -0.9190315882
0.54716 -3.139026 3.819829
1.596208966 3.469235379 0.6202241724
-5.954874878 0.07715790244 -0.7594617317
-1.162071667 7.069599556 -0.7552371111
1.581841111 3.044231037 2.076835667
-6.16297 5.637357636 0.610858697
6.46091814 1.48073586 0.6158085349
-3.213472778 -4.988724889 -1.345664333
-4.899508333 6.904194 -4.477452667
2.298326471 -0.5865454118 -4.467552471
-2.753356923 -5.682106769 3.800592846
-3.71756 7.271615053 -4.947634684
7.212138571 -5.378695524 -0.03628957143
-2.278851 4.822299 0.015317
-0.4899428 -5.6822568 -1.4850834
3.02620963 -4.711441926 4.134535296
6.342203077 0.008487076923 -2.053727923
-3.273437714 0.076936 3.498575286
-6.58756 2.902034 2.731953857
3.094708182 -4.167739182 4.425193091
-5.355820263 4.934457158 3.361882158
-3.270228 -4.950333 2.0082215
-4.560976667 6.829360667 -2.333661
-3.84024375 -1.866326 3.165243375
0.1875374074 3.099668074 -0.0681147037
3.847713333 1.682071778 3.022444556
-5.04429 6.724794 -3.988581
0.1947664286 3.081829714 0.6177900714
1.409195 -3.648376 4.41092
3.022075 -5.489498647 3.705067235
-1.134979655 -4.230360483 3.016484862
-6.754913143 2.897756857 1.332663857
7.123176857 -0.6282311429 1.321526143
4.12506 -2.1113985 -3.9512435
0.1375788889 -4.1810735 -3.619372667
-3.291432895 2.163328211 -2.117566526
0.656401 9.002124 -2.367498
-6.029096857 1.519299714 -0.06029557143
2.984812308 0.8055709231 -3.081937667
-4.673967105 5.054799263 3.432877947
-0.9063166667 -3.710302667 3.046355667
0.2158618182 -6.007873273 4.146485364
4.361768333 -6.009973917 2.7471265
5.837111522 2.205100522 1.326400304
-4.680853514 4.308661568 3.963644676
1.681493636 1.944394 3.139915364
-1.182516053 2.213038737 -2.292572579
5.819696136 0.7922749091 2.738115136
-1.173121429 1.936701143 2.484401857
0.1935238462 -5.727851385 -2.677593308
6.770591667 -0.6335632222 2.165977889
8.685047429 -3.431978857 -0.07951157143
3.726946977 2.179270744 2.847768767
-1.939988605 3.477049814 -0.7482942558
1.653385263 2.701472947 2.577228474
-6.128412778 5.624255111 1.329473444
4.21885 2.613127333 -1.906116
-2.080466429 -2.812378143 2.985739
-3.5635 8.212236857 -6.908809571
-6.150675714 4.255034 -0.074229
-4.235631111 6.077627333 -0.8992565556
0.8556082609 3.114267913 -0.8333640435
-3.139138182 5.052966727 -1.096548273
-4.216002308 0.1829301538 -2.483974846
5.931750882 1.565411647 -1.577931882
-1.306543913 3.276250522 -0.731917087
0.2086265217 0.6114909565 -3.273911435
-1.152272424 -4.941554485 3.230626576
-2.58577625 -0.654681 -3.080451
2.319367632 -5.485395211 3.878293474
5.586930714 -4.648566 -2.125016714
-0.73651125 7.6784065 -1.03618975
-2.609649348 5.715228783 0.5798574783
3.707977778 2.734734741 2.532588259
4.2036175 -5.988451 -2.6968935
0.9268204545 8.520766727 -2.877144409
-4.111551333 6.254004 -1.523884333
-6.34805625 4.23495025 0.6068461875
-5.191147931 7.172221586 -4.261109276
4.391828 2.884154 2.029591222
-5.27761619 4.272332095 -1.305067667
7.10028875 -5.284814125 1.28274025
-2.33806 5.254494 -1.164756
6.71471 0.7851243125 1.340939312
2.35307 2.020278211 3.169772684
0.7480618182 7.684789455 -2.408104636
-2.315531111 5.770071778 0.206769
1.6831524 -2.7299548 -4.537175
-3.280402121 -6.023938424 3.406875364
7.171352857 -0.6266837143 -0.776225
6.887051429 -0.1333002857 1.785524714
-1.722745 7.521965429 -1.411344571
-2.629413784 -3.423731135 2.088507919
-0.02061357143 -1.206044571 -4.547558857
5.652188 2.02377 -1.370995
-3.973669714 0.06729771429 3.352853571
-1.873553571 1.529183286 2.860523286
-0.58725875 5.9013065 -0.908034125
-5.208174286 -2.494141 -0.02583171429
4.598523333 -4.904216667 -3.113295667
-3.966515714 6.427058286 -6.350321893
-3.27311 -1.331989429 3.481903286
-4.963235 6.007744 1.631484
0.2484448718 6.284570923 -1.423443821
-1.923635517 7.195159517 -0.6986865172
-4.686575143 2.938245429 4.406232143
6.973073 -0.6565196667 -1.428028333
5.791701053 -5.352896526 -1.296814684
1.60472 3.448226143 -0.08492207143
-0.4260134146 7.763484244 -1.417923439
-3.317235 -3.492671 1.316554263
-3.933952391 7.120620087 -3.568493609
-0.5612546667 -4.648275333 -2.942650333
6.276059 0.598927 -1.95186
-1.228846429 7.088008286 -2.136503857
7.458555 -2.409821 -0.424386
0.775975 1.748044 3.0379415
-1.002018667 3.169500667 -0.9047903333
-6.080290714 0.7733004286 -0.05523552381
0.8959148 -5.6835048 -0.7626738
1.603914194 -4.09926471 4.297373516
6.101722857 -2.709868857 3.024511857
-1.1518228 -6.0024244 3.3474806
2.306035429 -3.391601714 -4.337469571
-1.873917857 1.936179714 2.506462571
-1.173929143 -1.336519143 3.421655286
-0.5129971875 6.373247125 -0.8140731875
-1.185202414 -6.072103241 2.726921759
0.1889070588 -0.5845374706 -4.393341882
5.766248049 -2.723611366 3.230109
-1.026878 -0.201834 -3.252095
6.787227143 0.9726154286 -0.07830314286
3.691699565 -6.056981217 1.372685522
-0.8754 8.150994 -1.691071
-3.553267368 6.324772947 -2.922029421
-3.993401176 -1.279828941 -2.697006294
-0.82492 7.304094 -1.059041
-1.60909 3.220794 0.847819
6.48563475 1.458169 -0.08253175
-1.198684375 -3.441664125 3.1816565
4.74382 -5.904336 0.872639
5.677378437 2.05296275 1.9653265
0.1926277419 2.746242387 -1.467771323
5.010321071 -3.458821714 -3.413856714
-4.016326857 2.862479714 -1.782229571
3.716563056 3.459410667 1.317000944
-5.2412635 1.465249 -1.292036
-3.672391667 -5.067566 2.617720667
-0.498677 -0.6123135 -3.515843
0.8928485294 7.087438118 -2.777450412
-0.776265 -3.256156 3.121509
-0.584796087 7.039046174 -2.43717013
-1.660281818 -6.054502364 -3.446722818
3.015669412 3.345058706 1.838051941
4.380804054 -3.459903568 4.048915216
4.852939286 -3.448865286 3.837749
-0.5166384 -5.6755356 -2.170359
6.706723939 0.06801460606 -1.543009788
-5.93762619 4.214874952 -0.6375490952
-4.042864737 6.048278211 0.03124636842
-3.6114825 8.229094 -6.667386
-4.4093325 4.605994 3.729014
1.605551143 -3.385421429 -4.446121857
0.00568875 8.441119 -1.703006625
-4.671294634 3.627472049 4.25093461
0.868485 3.110116222 1.388403444
6.973320769 -1.317197923 -1.388890231
6.906598182 0.5855758182 -0.6312546364
-5.100088929 6.418808286 -2.842166357
-0.4684142857 2.223782095 -2.202286
-3.986002222 5.631702333 2.716942333
0.3503323077 -0.1860829231 -4.117261769
3.019398065 -5.626379548 1.979156097
-4.718973409 0.7626635455 2.833071045
-0.5001815385 -6.066253692 -2.947704462
6.536839111 -0.6210766667 -2.180613889
6.22764 0.597894 2.444132333
0.1771736842 1.609888737 2.924664263
-0.05859333333 -5.256216 4.373095667
2.327707 -4.864523 -3.7978485
-5.394124348 5.479589652 2.644492043
-4.067276522 -2.109254696 -2.319192304
0.9401774286 7.048239714 -2.169023286
6.683434333 -3.404848333 2.164019
-2.496572 -2.28711 -2.485321
-1.810773514 3.565602108 0.6108146757
-4.684900357 5.939469 2.019168286
3.704948889 -2.029210722 4.631386778
4.301283636 2.575012182 2.447961727
2.291379 3.116199 2.180049
7.212090857 -0.6223488571 0.621663
-1.752478333 2.985402333 1.377655667
-3.352303333 6.062449556 0.6143604815
-1.890885833 6.889727333 -0.3758676667
7.201662 -3.507276286 -1.310248429
-0.4985947059 3.112167529 -0.08033129412
7.092600857 0.07375228571 0.6212604286
-4.729393111 -2.745772444 1.336041
2.326026857 -2.765732286 4.767420714
5.264645714 -4.940851 -2.207683857
-6.363842857 2.137151143 -0.2497102857
0.36144 8.939000667 -2.275277667
6.16961 1.836594 1.224539
6.699233448 0.8584505517 -0.8617782414
2.812994286 -3.999181714 4.513773286
5.117046591 2.829682636 1.316420364
-5.850785263 -1.218434947 -0.6769973158
-3.801152727 0.6341512727 -2.601295545
-4.47110375 -6.022901625 -0.121886
-1.1859968 -2.8125476 -2.4184882
0.2650036842 2.632567684 1.911836895
-4.711353143 7.037136857 -2.899422714
-1.41782 5.813348545 -0.3354982727
-3.934226829 6.442440341 -2.159226854
-2.301298333 2.276560667 2.312415667
6.12945 1.781644 1.566484
-5.397575952 -2.027164571 1.31217519
4.397110698 2.81197307 -1.471384721
2.311292 2.727154 -1.9929266
-1.904769429 -0.6784074286 -3.086016143
4.384465161 -6.047336968 -0.765594871
-4.620182581 4.977597226 -2.164737774
-3.67483 5.361594 -3.161511
-6.055693824 3.551541059 -0.7575468824
-2.589957714 6.357928286 -0.06256928571
-2.805248571 4.984876143 1.955038286
0.2839791304 2.056607043 2.593730304
-0.49787375 1.455024 -2.784287
-5.394962188 3.552853375 -1.362616937
-4.78414875 -1.393046625 2.866583375
7.195316154 -1.348468308 1.309587462
-0.5041947222 3.011644 -0.7793448889
-3.890326 -5.613546 0.5312993333
-0.4332884848 -4.913791758 -3.546581606
6.488764651 0.7445556279 -1.488047512
-4.088374706 4.975394 3.290669588
4.795515 -3.877746 3.826454
4.71972 -5.833629333 2.948412333
2.2326825 -5.95480475 3.87533275
3.7134175 0.35683775 -3.1794385
5.848311463 0.8184813171 -2.230396366
5.26967 -0.556684 -3.1450485
-4.481138125 -3.190761625 0.634999
-2.543838571 -5.563844286 -1.994543
1.5793025 3.016140875 -1.517398187
4.937623182 2.048284909 -2.018770545
0.9642 3.297711391 -0.05440273913
6.9658105 -2.0132945 1.873582
5.783605366 -2.012933073 -2.903285634
-5.345895 2.214248545 -1.319025545
-4.7698704 7.297634 -3.4951674
-4.002560976 -1.356263073 3.344657537
-3.313876333 -6.140737 0.6412853333
-3.2634872 6.128162 -0.0364686
6.13276 -2.111559333 3.048889
-1.216052 -2.459989 -2.599071
-5.066613125 6.20205025 -2.33403975
0.2187855172 2.868894 1.322399
6.328519048 -3.373805524 -2.066953381
0.3655540909 -1.264558727 4.607474455
4.885343333 -5.437477111 3.173153444
-6.057132857 1.662047571 2.745362214
-1.236496 7.869127333 -1.485364667
-1.992411176 3.585838118 1.328743706
3.750624103 -4.143220872 4.231142333
-2.627835946 2.189726432 -2.31777127
-0.5528363889 -4.162959611 -2.168326556
-5.586608235 4.268294 -0.9735880588
3.2766 -3.767486 4.443244
-2.511795217 -5.421071217 3.692648565
1.680693684 2.677457158 -1.989000474
1.601582917 2.272414833 2.9193965
-1.101778571 -4.622201714 3.043016143
6.939110952 0.6274654286 -0.07823004762
-1.884781707 5.684635463 -0.0656712439
-0.00363625 -4.06155725 2.91825275
6.230244 -3.98233 2.468355
-5.271481081 0.05297616216 2.580784135
-2.7235325 1.184619 3.090294
-3.222115333 2.066484 2.874717
-5.999032439 0.7895003415 1.33276778
-1.210484839 6.499858516 -0.6566180968
-6.273508 0.04216971429 0.6473498571
-0.6216028125 -2.735624125 -2.86829725
-5.171928571 0.055179 -1.950780286
-2.607761429 1.461659714 -2.704756143
-6.474106786 4.990279714 1.285468286
-4.935964667 -0.646234 2.983756333
1.42099 6.956152333 -2.334613083
7.247976286 -0.6202594286 -0.07755871429
-4.46857 -1.215477818 3.151802636
5.800526341 -0.6323813659 -2.833804902
-4.707152424 5.630727333 2.705469606
1.616478108 -2.784701405 4.619430892
-3.9234475 5.085229714 -2.858621357
-6.157190571 2.875776857 -0.7659921429
-3.856253333 -1.837287667 -2.614857667
3.026443462 2.749509385 2.585097846
-5.674713333 0.998894 -0.9908226667
-0.6130894444 -2.693324333 3.148584556
0.9255837143 2.161722571 2.788833
1.646167308 7.784584385 -3.540820423
-1.882621111 -2.054491833 3.334415944
7.130031429 0.07539571429 -0.07812042857
-1.881456316 6.404262421 -0.2063825789
-5.991819487 1.551309385 1.306802077
3.713345484 -5.498470839 3.605974484
3.845307143 -0.4524567143 4.408259714
0.2380415789 -4.881956526 4.198761105
3.7733375 2.295304714 -2.392646714
5.825623636 -1.296927136 3.366818773
5.7306875 -0.0061844375 3.273845562
3.80062125 -4.967714125 3.617409
-3.540206667 6.005060667 -0.290191
5.661242083 1.392119 -1.99988475
-2.179548261 4.202985304 0.005615521739
-0.3919071429 -2.7349 -3.540916143
-3.3742196 5.599726 2.5663822
-5.535234286 0.1411011429 -1.520286714
-4.607786667 5.374594 3.116382333
4.32236375 -0.08772266667 -3.348529333
-3.59702 5.505964588 -1.510632176
-0.5050773469 -5.571827429 4.176838592
4.423895385 -5.539606256 3.419331564
-0.3832661111 -5.693983222 -0.8520376667
3.026141429 -5.104171714 3.696214714
0.8906357895 -5.476130211 4.350981632
2.62363 -5.238876 3.755929
6.260863077 1.285086308 -1.328006385
-3.540441304 7.773472261 -6.406104478
0.9301790323 -2.631003419 -4.706433903
-5.75026 0.548594 -1.155611
-3.696706 3.061914 3.691983
1.599915333 1.007694 -3.185396333
4.88493875 -2.623021625 3.89944275
1.63813875 1.95778775 -2.605476
7.915035833 -2.892058083 1.810679417
-2.497908718 -4.076848051 2.003407205
-6.625687879 2.233972788 1.298041424
4.38835075 0.039948 3.91587425
0.67589 -4.533821 3.755189
1.634425 7.348860667 -3.297769333
2.711915 -5.736996 3.776359
-0.490417931 -6.134632897 -3.620059966
6.826551667 -0.5314176667 -1.761891
-1.313698125 -6.148929125 -0.713457875
-0.06816833333 -0.4338126667 3.680109
-6.286881053 4.936294 2.017349
-6.000752571 4.237268286 3.389672714
-3.985983333 6.095933394 1.322654455
5.3489275 2.470344 -1.0466035
5.229437857 2.313140429 2.130078643
-1.209533333 6.391752333 -2.033657111
8.341896 -4.018836 -0.576279
-2.13451087 4.110620087 0.6054355217
-2.614021591 -2.755091909 2.808537182
-4.124183824 7.144076353 -6.386338647
4.67096 3.183614 0.664506
2.326388065 2.772590774 2.606098355
-4.855000937 6.48937525 -2.098760687
-3.8275785 7.743489 -6.933795
-4.505228182 1.386048545 -1.927918273
4.240506667 0.5670773333 3.805634
0.3067514286 -4.130410857 3.390681286
-2.97936 2.936727333 3.033632333
6.2318 -3.835286 -1.895567667
-3.1930355 -4.9773515 3.3219025
-2.599696897 -4.945790138 3.370732103
0.09408642857 2.346558286 2.231459714
-2.267068333 4.440760667 -0.2377226667
-1.852687143 -4.933408857 3.241924357
-6.574667576 2.244227333 2.750342333
2.302231935 3.580261742 0.607205129
-1.89421975 2.203049 -2.376473
0.2201154839 2.992500452 -0.7683887419
-1.126529318 -5.530495545 3.492169909
0.1830030769 0.07239579487 -3.504095103
-1.148796207 7.627300897 -0.904278931
-4.001262778 4.318499556 -1.683211278
1.568663902 7.110481805 -2.837411976
0.9231169444 -4.822265722 4.104785389
-0.07677 6.0022315 -1.3326435
-1.996743333 -4.593461556 2.970600111
6.8279 0.340399 1.571869
-2.010859118 -3.378218059 2.854377235
-1.19002 1.466586308 -2.787731513
1.624845714 -4.791528 4.011042143
-1.07777087 7.686307043 -2.060815348
-2.667143077 4.231945282 1.994993872
2.96885 1.9985815 3.1490415
0.1626604762 7.153522571 -2.66033719
4.409129259 -6.022720444 2.046942704
-3.996341471 -0.5797695294 -2.678594235
-6.716320571 2.893099714 0.6321387143
-0.673952 -4.539046 -2.328887
-5.515043333 5.216194 2.928254
-5.40061561 3.625181805 4.274188024
-0.001041818182 -2.105918727 3.549989909
4.960981538 2.669370923 1.954299385
-5.532388788 4.951115212 -0.7923625152
-1.357281667 -3.940881 3.088910667
0.9206975 -0.08155891667 -4.207844333
5.9449016 -4.8839036 2.1967394
6.03463 -3.548532923 2.976705923
3.750433846 0.5830786154 3.852445923
-3.253516429 5.828963048 2.055259714
-3.199568824 -5.090564824 0.5104342941
0.1582017143 7.746471143 -2.833407571
0.2622047368 -1.981737053 4.132474
6.566178788 -1.359356606 -2.155752515
4.280354231 1.387094 -2.643440231
2.52554 -6.014296 3.048819
-4.63626125 -1.98560975 2.63296575
0.2310266667 8.54250025 -2.116942458
-3.786472381 5.844579714 -1.423886238
-0.32679 -2.851475412 2.994829
-3.755178571 5.066736857 2.974771857
-4.718745946 0.1312777838 -2.282835324
0.1181085714 -4.532921714 3.690591857
0.006675882353 -2.015313647 -4.509113941
-2.608512 0.03916428571 -3.079431857
3.631188421 -4.680792842 3.986268474
-3.574256875 5.6696065 -2.1750885
0.8747121212 2.293924303 -2.229883727
-2.023684211 5.133288737 -0.1667925789
-3.331391111 -4.850895259 2.727133815
4.474600952 0.1993154286 -3.182018619
-4.577755 -0.6283781429 3.208096143
-3.65196 6.708994 -3.276731
-2.571226296 -4.612589333 2.768584556
-2.289048333 4.415194 0.7197031667
-6.153391622 1.533950757 0.6598711622
-5.961710556 1.720366222 2.016235667
0.909074375 -5.5566685 -3.667653188
1.593270345 0.2566846897 4.212941759
-5.07767 -2.485706 -0.442721
-6.583351212 3.559187939 0.6437577879
0.8924935897 -1.366980103 4.797795667
3.722521667 3.080973167 2.142580667
1.625972857 -1.369389143 4.870958429
1.348681667 8.906010667 -3.511611
3.034999722 -1.371512111 4.781395389
-0.744685 2.544444 -1.853281
6.765340435 -2.817039913 -1.572054913
3.647305 -1.351560706 4.608265765
-0.6341444 7.776434 -2.3648086
-5.169679375 0.7698815 2.481520875
-2.139864167 3.452485667 1.860663167
-5.133793333 6.044427333 0.7196156667
-2.496158667 -4.111273333 1.275970667
-6.642394444 2.207635667 0.6408159444
-2.573578 -1.325168286 3.570051286
-1.873776857 -1.336249143 3.436204714
1.1131675 3.2817315 1.147714
-0.4410921951 -1.350536732 3.411263146
0.1805670833 -5.682430583 -1.473042667
0.867360625 -1.3408735 -4.799662562
6.16399 -0.762486 3.104585667
0.946476 1.936880667 -2.630415667
-3.128612105 5.976030842 1.366045316
-5.096085 6.051944 1.073184
-4.055808684 -2.868733368 2.060229789
-6.567154 2.887334 0.0325594
-0.5410190909 2.606666727 1.793027182
-4.179463636 -5.450930091 0.06593809091
-0.5180710811 2.769018324 -1.464789378
-2.93249 6.045694 0.306789
0.4716316667 8.951560667 -2.705591
-1.395315 -5.257396 -3.224856
0.3760181818 -0.1279350909 3.961177182
-3.65753 -5.161296 0.301819
-4.675241471 6.433432235 -4.296768941
-6.288655556 1.972110667 1.978619556
-5.861533 0.777856 -0.6983003333
-5.339603696 2.186389652 4.030480522
-3.932653846 8.379047846 -6.854482923
4.132988571 -1.923784571 4.504474714
-3.995697907 6.332354465 -5.758615884
1.626159714 -0.6802285714 4.799182143
7.360294722 -2.016130167 -0.08165933333
0.955611 3.311514 0.5912435
3.042408684 -0.6519728421 4.712902421
-3.014318571 6.001522571 0.6785932857
-2.573697429 -0.6205894286 3.607071857
7.903034667 -2.296559333 1.138191
-1.173245429 -0.6336222857 3.431642429
-0.86202 -5.667819333 3.833955667
5.806680476 -1.952592905 3.336903286
-0.4569878378 -0.6381308649 3.515069541
-2.674813333 -4.108120524 -1.481414095
3.733083514 3.037656162 -1.521526946
-6.532781176 2.307176353 3.271945471
0.90410225 1.4776165 -2.92194
-3.467100909 3.398194 3.176420818
4.414676739 -0.6238455652 4.111525957
5.017681613 -0.6504379355 3.906814161
7.026393143 0.06745828571 -0.7762287143
1.526413714 7.709448286 -2.944736714
5.88604375 2.2399865 0.619177
8.524307429 -4.141009143 0.6233021429
-0.83706 3.241594 0.093019
1.641049 -0.1393475 4.6387295
-3.861775625 -5.041001 -0.76863225
2.895201538 -0.1359598462 4.574189769
-4.681448261 7.763820087 -5.754777522
-0.93407 -5.990778 0.501782
-4.268135 1.757644 3.887549
-3.608751 6.581354 -5.594094
6.54586675 -4.83506825 2.2011795
-0.5044869697 7.099454606 -1.41413403
-4.014618571 1.427311143 -2.168587286
4.68422 2.462069 -1.759501
-3.5773 6.033894 1.679559
-4.908950769 5.940832462 -0.7363994615
-4.552813333 0.01604622222 3.194707519
4.700926667 0.3921206667 3.738652333
-2.573546857 0.07670971429 3.489777571
5.123201628 1.468438186 -2.251941465
-1.173017429 0.06935714286 3.387554143
-0.4733271429 0.07991971429 3.539606143
-1.897198148 -6.064991926 2.72248863
4.928125455 -0.08061418182 3.817821727
3.0484 1.4748165 3.29797025
-2.621984 4.947602571 1.345275857
-3.490934 7.772914 -6.970929333
1.640106667 -6.084011667 -2.870770667
2.329260606 -0.02514751515 -4.157187667
6.338438333 -3.444880333 2.64964
-2.786751739 6.465624435 -0.8449314348
-4.07879 -2.122088903 2.896799323
-4.0982845 2.248194 -1.774135
-3.28867087 -2.71943687 2.701021174
2.946372727 -5.580873273 2.487522636
-4.411344 0.504328 3.108493
-4.485217778 -6.018838778 -0.7576476667
-3.273640857 0.7701511429 3.283452714
-1.873440857 0.7691911429 3.255159571
-3.330357105 5.686157158 -0.8827941579
0.08073411765 6.384588118 -1.025542176
-1.184908846 0.6842363077 3.196611308
-0.4586633333 0.7534667273 3.287926576
0.951275814 0.739939814 3.454983419
2.93428625 0.493859 3.84408775
4.461811875 0.827147125 3.56743525
-4.932816944 5.625363444 -2.175688222
0.2088423077 -5.687909077 2.012509769
-4.695455806 0.8035810968 -2.062885194
4.78119 -5.939736 -1.162881
3.714558636 0.9083667273 3.574012636
6.657392368 0.1094582105 2.078795053
4.428551702 -2.735447277 4.174988362
-1.5333 6.096194 -1.811831
5.42047 2.497194 1.656329
-4.129424444 0.9574495556 3.004116778
2.336886667 -2.005668333 -4.525861
-3.30937 -6.159035667 -1.527372333
-1.139927778 0.9928495556 3.019002333
-2.496022195 4.302640341 -0.8348544146
-4.060530909 5.198484909 -3.557244636
-0.725275 1.041594 3.047729
5.25626 1.005521273 2.996823545
2.208896667 0.5044506667 -3.292603222
-2.388133333 6.741527333 -0.347771
-3.808141176 7.095894 -6.856538059
-4.682979231 1.298301692 2.875249385
-3.301452187 1.4960315 2.865027438
6.183918 1.877054 0.658329
-3.12378 1.182944 3.0814765
6.191101667 1.872894 -0.031321
3.725078919 3.544169676 -0.08433694595
1.597842857 2.322279714 -2.343270643
1.316155 3.178544 -1.044846
-2.776763333 -5.253737667 -1.780162667
-1.873498571 1.185065429 3.104109
4.2280125 -5.964291 3.28757025
0.3177418182 -1.290229182 -4.702466909
5.813596279 2.174938186 -0.775691
-1.172723143 1.455825429 2.805123
-4.8515184 1.54391 -1.6144458
6.046056875 0.1886315 2.908129
-3.990059615 5.943655538 2.084940154
-6.367452 3.651074 -0.1809415
-4.88538 8.127194 -5.313471
-0.4935778125 1.48285025 2.8373465
-0.27451 1.184727333 3.082282333
-0.511155 0.7795328889 -3.105909056
6.447735385 0.7841063077 1.989252077
0.281826875 1.29576275 3.17161775
4.384280588 1.286629294 3.178737824
4.82662 1.184194 3.088729
4.373931395 -0.6062932093 -3.641196814
-3.305371579 3.603383474 -1.602017842
0.653145 -4.290066 3.7174915
-1.213910476 5.709624952 -1.538752667
-1.872944 -0.6300737143 3.478677571
8.273476667 -4.579976 0.1248556667
-6.22027 -0.6351331429 0.6508241429
-1.018621429 -0.578351 -3.274566714
1.60809075 1.480194 -2.97242425
8.408727857 -2.861781 -0.5886874286
-4.015419143 -3.460260286 0.6314038571
2.290632564 1.483165795 -3.016885615
-0.5209744186 6.374700977 -2.135934488
0.9080693333 7.750229556 -2.900886333
-2.872474167 5.648019 -1.079347667
-3.89310125 1.98800025 -1.95258975
-2.581398889 -6.021548222 3.469870111
0.7807377778 0.3017406667 3.626553444
7.924575833 -4.9040685 0.65467275
3.546185 -5.714606 2.451244
5.183632857 0.13702 3.585304143
-1.901381765 -5.987666 3.419158706
-6.4239675 3.854519 1.477099
-4.594029333 8.458660667 -6.312977333
-3.363609189 4.281250757 2.617813865
-2.613987111 2.885578444 2.683011
-1.185832857 -6.139443143 -2.879083857
-0.3525558621 -1.338393241 -4.193798586
7.92907975 -2.747255 -0.756538
2.290688333 2.329523167 -2.355603083
-5.0851575 6.779269 -3.1243835
-2.37392 1.041994 3.066749
-3.231790333 3.651584 2.892991333
5.948780625 1.564640875 2.09987525
-4.714212 2.857068286 -1.704491571
5.645014783 1.412428783 2.568723783
6.778734 -1.997654 2.223305
-3.034637692 5.021363231 2.283143615
-2.995588947 -4.155929158 -0.2688431053
0.26251 7.050320087 -2.178126217
0.2048083333 -4.868725722 -3.638999611
-5.086934 8.224414 -5.809425
6.339725 0.03049525 2.63456275
5.775480667 -5.418003333 1.943311667
-1.872759143 0.07206628571 3.421134429
8.470564571 -4.145194286 -0.07665642857
-0.318038 7.240074 -2.580819
4.07808 1.850094 -2.550421
-3.620245 6.163194 -2.403406
6.1279725 -2.0464135 -2.4702935
-3.059175 -5.1005985 1.498964
0.2248747368 7.750538737 -2.084809158
-3.734714 6.578987333 -2.762593
-1.150201351 5.635326432 -0.7194888378
-1.2881975 -6.0690535 -2.238641625
0.4413385714 -0.7630117143 4.555269
-5.12879125 6.9802315 -3.620039333
4.914777778 -4.926503222 3.175551222
-1.4240625 -6.055686 -1.517376
5.243988261 -4.864392957 2.929162043
-0.4807761111 -4.126412111 2.842773167
5.661580455 -4.767182818 2.580325818
-3.988008 4.3156415 3.4299225
-4.404175 -0.798971 -2.554141
-6.156434762 0.7803751905 0.6429887619
-1.264134286 6.175008286 -0.3626838571
6.944260588 -0.6777577647 1.839677235
-3.505207895 7.154278211 -6.876013105
6.44834375 -1.31014075 2.720639
-4.270091667 4.121177333 3.840444
5.51900375 2.594319 -0.08982475
7.850777 -4.7781 1.302279
6.0870875 1.050519 2.297469
7.663726 -4.61295 1.761203
-3.032843333 -3.784219333 0.4006223333
1.671079 -4.600012 -3.980753
-4.703534783 2.165728783 4.299961391
0.1584857143 6.952260667 -1.652061952
-2.833805 -3.066511 -1.752446
-2.22509 4.029194 -0.502586
4.545552727 -4.370855091 3.642299909
-3.47899 2.340516222 3.298425111
5.067131795 -4.141279077 3.383324128
-1.8559925 5.276894 -1.190341
5.321253333 -4.415449333 2.994907333
-5.670757 -1.562858 1.455309
5.845311842 -4.175711526 2.771303211
7.8658025 -4.084901556 1.9273765
0.6015533333 -2.124549333 4.438132333
8.147378333 -4.301076833 1.4957115
-5.798088 -0.020525 -1.201875
-4.665191515 7.641715212 -4.293271909
-3.76626375 2.048569 3.528623375
-5.377411515 1.413139455 2.716938394
-3.981784359 -3.280286769 1.306209769
-0.34754 6.5571065 -1.359621
4.34288125 -4.06108975 3.930486917
6.924446 0.5811073333 0.5681403333
1.344372727 8.370666727 -3.121940091
-0.1019457143 7.835179714 -1.764631
1.6093008 -5.6006984 2.6863238
7.181903611 -2.033654611 -0.7670143333
4.6689875 -5.8076085 -1.6129835
-0.112825 -0.343201 -3.804936
-5.536213947 -1.403649421 2.066401105
5.567794 -3.939124 3.129867
-0.6238577143 -2.011564286 -3.544893571
-3.356389167 5.022882889 2.685106222
-4.190666364 8.220148545 -5.851467364
-4.816496154 -2.853933308 0.6138882308
4.385777273 2.183903091 -2.209801227
-3.700773 4.296014 2.959433
4.460431282 -1.272921897 4.278797205
-3.02933375 4.4180815 2.3038665
0.7728672727 6.457794 -1.575878727
5.205975161 -3.477300516 3.563623839
5.703507931 -3.44267669 3.217917276
4.127586667 -1.534262667 4.491159
-4.1663315 7.551884 -4.33144
8.529287368 -3.451397053 1.326200842
8.297213333 -3.323876 1.716525667
7.235109 -2.73360875 -0.8461375
-6.190051429 0.03413371429 -0.05218614286
-0.88119 7.009194 -1.140361
6.248585556 -1.198876 -2.608724333
-2.9097 4.011194 2.433669
3.986703636 -2.750647818 4.431601727
-2.613087931 2.985390552 -1.597161345
1.056175294 -2.646383059 4.531766059
5.199935 -2.753327579 3.576922947
-4.052962857 6.963928286 -2.913676429
8.25746 -3.034306 1.720709
8.46644878 -2.764618927 1.271235585
-2.52293375 5.655735667 -1.24541725
1.095005333 7.878220667 -3.377765
6.763658333 -2.700728222 2.137122333
-6.479888 4.959094 0.8144316667
-5.78918 4.008494 3.833119
-3.308983429 0.02213028571 -2.855532143
-3.709155 6.1472565 -5.14056975
7.234105676 -4.126217351 2.282457919
0.826155 6.766969 -1.69820725
5.586583333 0.4958123333 3.154765667
0.2144048485 -5.559618727 -3.800672212
6.4384655 -0.6386945 2.71157025
8.422991667 -3.43590475 -0.6596839167
-4.501166923 7.918770923 -6.198107154
5.54255 2.590838444 0.5295445556
1.615385556 0.7976681667 3.491205667
-3.6887 1.865394 3.049599
5.027239677 -1.951131161 3.976623194
5.027738462 -6.008596 -0.7465648462
6.44454875 -1.98336725 2.70863425
-1.877265417 -6.071806833 -0.1926964167
3.013506452 3.624203677 -0.07807777419
-3.877392903 5.564258516 -4.354912935
0.2203613514 1.485794 -2.865670459
-5.234259032 -1.908024387 1.955604484
1.612457561 -5.496179415 4.098886317
7.369841852 -2.015038222 0.6156978889
5.068643714 -1.297663714 3.980237
5.415106667 -1.269144889 3.697807889
4.473489474 1.607483474 2.958672684
-3.519048108 7.084996703 -6.362593162
6.16218 -1.502231 3.096449
-2.554518065 1.492919806 2.860222226
6.790256 -1.322576667 2.246422333
6.980309545 -1.317160091 1.880424455
-5.67871 3.801027333 -1.080681
-3.80382 -5.805101 1.593479
0.9101225806 2.815381097 2.036481258
7.276766 -1.320802571 0.6201332857
3.981375 -1.186277667 4.427467333
-3.569712813 7.073947125 -5.672490062
-3.609978571 6.642365429 -6.350601
1.620654571 -0.001984571429 -4.185508429
5.360279231 -0.5998283077 3.675202077
0.1931295122 2.219613512 -2.223967341
-1.9032832 -6.1576312 -1.4476114
3.017374706 3.534126353 1.316248412
-4.091868 5.834174 -5.7019
-3.577254167 6.856419 -4.295591833
-3.304810667 4.309825111 -1.480466333
-0.9781933333 -5.687627111 -1.558066556
-3.65935 -5.068596 2.273489
-2.651037778 3.546249556 -1.3350235
-0.2471730769 -0.7669383077 -4.100461
-4.30799 -0.293636 -2.523951
4.4363 -6.022297818 -1.482563727
4.336281739 -6.023628609 -2.161713174
-0.11524 -1.589436 3.723789
-4.4973725 5.21357525 -3.53020225
6.523948889 -5.719657667 -0.1164321111
6.530078519 -5.511491556 -0.8192858148
5.082742333 -5.512552333 -1.456485333
-4.833709714 5.612359714 -2.883129286
-2.285785 -3.978421 -1.863236
1.601481667 -1.301469667 -4.734266
3.682037692 2.695136308 -2.043730615
-6.400642857 1.908165429 2.630349
-2.186653333 3.994844 1.182260667
6.773626 0.902644 0.6616405
-2.554757619 4.914336857 -0.9153962381
7.241081667 -5.362125167 0.6124606667
7.56483 -5.209256 0.227619
4.871656471 -5.326425412 -2.130715118
-4.595774848 -2.578935394 1.976811424
0.9121191176 0.07113547059 4.157706059
7.9340564 -4.8492156 -0.097193
6.19438 1.830594 -0.485041
1.101888571 -0.1712131429 4.564191857
7.791114 -4.7293695 -0.732066
5.970236667 0.1201473333 -2.368383381
-4.4226075 -3.1340135 1.116334
4.957251 -0.6777655 -3.3261305
-4.1341 7.126484909 -5.800805545
-3.602953333 6.790794 -3.753881
-6.111876216 -0.6202811351 1.34732927
5.074024412 0.730579 -2.732687765
3.056320385 2.720936308 -2.042539846
5.340148333 -5.086014333 -1.632481
-0.623155 -5.992191 -3.9890485
0.8899314286 -6.044219333 -3.511172429
-5.955921905 1.69187019 3.33824519
5.061115769 -4.750526385 -2.835222538
2.246146 -4.313822 4.410606
5.682664783 -0.001078173913 -2.685216217
8.080143636 -3.393597818 -1.008870545
-1.59892 -5.162202 -2.826633
-3.81059 7.214948839 -4.246644871
5.814825 -4.840624667 -1.563702667
3.668874839 -0.7003934194 4.577839645
-4.711012414 1.507449172 3.442394517
2.972724737 2.409457158 -2.367568368
-1.907575429 0.042682 -3.093007286
0.872016 0.5773106667 -3.278543
-6.508934 3.461740667 0.07666766667
8.099422174 -4.216558609 -0.8375505652
5.48468 -5.196176 2.429859
7.64212 -4.502486 -1.165051
4.9415425 2.622935667 -1.300881
5.50345 -4.576146 -2.569131
5.07521 2.766736857 -0.777368381
-3.944973 -6.099791 -1.451552667
-5.854317 2.849844 -1.191475
-3.924131613 4.875097226 -2.179731968
-1.0162725 -5.0180185 -3.4104735
0.2266408571 0.7778311429 3.413614714
-4.515719565 5.680487478 -4.980341217
7.97035625 -2.41562225 -0.39505225
-5.186156667 7.343082889 -4.836574333
-1.205901379 -6.108697034 -3.622869621
2.281056667 1.959671778 -2.660614333
5.56736 -4.151706588 -2.696095118
5.247907619 -4.166348857 -3.033686238
2.349870667 3.086950667 -1.601712
