# .PCD v0.7 - Point Cloud Data file format
VERSION 0.7
FIELDS x y z
SIZE 4 4 4
TYPE F F F
COUNT 1 1 1
WIDTH 1380
HEIGHT 1
VIEWPOINT 0 0 0 1 0 0 0
POINTS 1380
DATA ascii
-4.250771 -3.054108 -0.974577
-3.46752 6.081594 1.136689
-0.3244133333 -6.058841 3.318382333
5.372273333 2.385227333 -1.1854585
-4.13799 6.079794 1.627209
-4.365356364 7.637366727 -5.231286455
1.076693333 9.129960667 -3.261264333
0.4291628571 -5.686044095 1.91487281
2.19759381 2.918636857 -1.828330524
-4.4429592 8.035234 -5.3170622
0.613365 3.121394 1.060794
-5.101933333 1.935560667 -1.352491
-1.963577778 1.800738444 -2.539574333
0.437185 3.148701143 0.6416282857
-4.04121 7.932694 -5.574571
-5.554987 5.627074 -0.4600315
2.1934735 -5.6176035 -1.710935
-4.78234 6.083660667 1.206155667
-2.481325 6.803385667 -0.5338501667
-4.4136725 5.7270765 -5.26554925
-4.515701667 8.531327333 -6.080354333
-4.000435714 8.543779714 -6.592212429
-3.87373 8.526844 -6.811976
-0.7903108 -4.992412 -3.5132634
6.176585 -1.332811 -2.666141
-4.731866667 -2.947876 0.6247523333
-3.63778 -2.955222667 2.269702333
0.978498 -5.993839 4.173909
-2.372222667 -3.803417333 2.364214333
6.4359 -1.447613826 -2.308777957
6.66327 -1.555491 -1.904172667
-2.496794444 -2.238119333 -2.517383222
-3.969035 6.078944 0.378874
7.070389167 -1.4068485 -1.124010167
-6.004076 1.815014 3.546127
7.313221818 -1.494388727 0.09604081818
-3.781697727 -5.114222818 0.1191808182
-4.847538235 5.304376353 -2.340026294
-2.159098182 -3.913267818 -1.934169182
-1.35922875 0.4044198333 -3.070868917
1.595464615 -0.04948676923 -4.259584077
-2.550523571 -6.081732429 -2.127195286
7.347558333 -2.171227667 -0.277186
4.0227756 -0.80185 -3.9183118
5.767415714 -2.042616357 -2.927699571
-3.617876364 -6.024987818 1.311806273
6.289586 -2.033527 -2.2727865
0.602016 -3.106379 -4.475034
-3.722052632 -6.060141263 1.934256895
6.619657 -1.977628 -1.894736
4.255945 -5.903561 -0.513436
0.15963 2.454294 -1.965991
1.0208305 -6.0441675 3.7656275
-4.896808333 -2.457229333 -1.026281833
3.884515 -0.3755085 -3.858901
7.062794444 -2.00700637 -1.107196556
-6.431637143 3.485986857 2.507378286
-5.88337 4.803494 -0.175601
-0.212214375 2.15426275 -2.288105687
6.0683175 -2.615706 -2.5730385
-3.604155 -5.63540475 1.487084
6.352944 -2.5910765 -2.274302
-4.822281667 5.471710667 -3.531597667
0.5038971429 -5.706693143 -3.750818143
-6.40213 1.951727333 1.395810111
-4.844904615 -2.460128308 1.844423615
6.989297143 -3.868806952 -1.47038719
-0.571945 -5.942456 4.087469
0.4066283333 -6.001602111 4.253156222
7.767668571 -3.801928143 -1.305098857
-2.638675 -2.841501 2.763744
-3.800938 -5.526182 1.9132265
6.646677273 -2.648887818 -1.891938273
6.801972222 -2.598469889 -1.606246
6.966483333 -2.635387852 -1.134624333
2.845034348 -3.174577304 -4.266967087
-1.20493 -5.795996 -3.786671
4.612236667 -0.817659 -3.570854
-0.9159465517 -5.68602669 3.749964172
-1.902309474 -2.017133895 -2.688537316
2.200318462 3.164532462 -1.520126385
3.9909324 1.538494 -2.7185042
-1.01421 -5.900176 0.422009
6.73154 -3.049211 -1.522336
-2.56727 -6.073226476 2.511333286
8.542388 -2.834104 -0.361165
-2.619636 -6.09797 1.914419
2.200218636 -5.669140091 1.297499
8.63283375 -2.678386833 0.1008815
5.218417826 -2.003846 -3.375458826
-4.868351304 -1.954539478 2.428001609
-5.230276667 -2.227106 1.394267333
-4.253026667 5.907060667 -5.825424333
-5.461710741 -1.951228593 1.278649741
-0.57649 -5.801636 2.397889
7.03852 -3.22652 -1.168059333
-2.0248325 1.503879 -2.7060865
4.568212609 2.648967913 -1.594478826
3.91115 2.585544 -2.1089835
-0.8123333333 2.735103091 -1.679122515
-4.214638095 7.597074952 -6.363650524
8.585213571 -3.252556 -0.409306
8.734595417 -3.2199035 0.07013775
8.742122083 -3.218951417 0.6721735833
6.1660825 -3.661201 -2.143216
-2.562642083 0.9650648333 -2.85804975
-2.252817143 4.383065429 0.6019647143
0.9401729412 -0.05326835294 -4.171949235
-5.865255 4.175944 -0.767821
0.5056728571 -0.412166 -4.459938143
5.037288 -3.802989333 -3.398042333
5.33501125 -3.840834125 -3.0279335
5.605952222 -3.763043778 -2.740021
-0.2218813043 -5.634397304 -3.874465783
7.6170124 -3.2458956 -1.1747398
-3.159080667 -6.000108667 3.589309
-0.16296125 -6.0005135 4.2035265
5.109087895 -0.8455428421 -3.299846789
-6.0561356 -0.8145096 1.307077
5.89019 -3.842295524 -2.349967667
6.035593333 -4.049236 -1.934851
6.40677037 -3.833743407 -1.635092852
4.6208112 1.597438 -2.4381326
-3.48057 7.890194 -6.704131
8.57247 -3.673256 -0.3443193333
3.34108 2.00730025 -2.703917875
3.450635417 -2.0544785 -4.25886225
4.03114125 2.82787525 -1.697833812
-4.645775 6.068144 1.521614
8.089735238 -3.785744095 -1.055110048
8.654296667 -3.781109333 0.6726465
2.216730968 0.4518172258 -3.416431645
5.261153333 1.050446381 -2.454372429
5.559966 -4.25692 -2.711153
2.261388333 1.972727333 -2.641144333
8.539103333 -4.138159333 0.2228256667
8.532811667 -4.139561 0.6734423333
-2.58383875 3.956384625 -1.112827875
-2.31353 4.799044 0.293894
3.42075 -5.995640545 3.543386273
4.663124483 2.89437331 -1.094624793
3.585018 -5.996032 1.735737
4.814315 3.0211315 -0.5468335
1.596364286 -6.097177429 -3.355215286
0.437245 2.478394 -1.995376
1.591818947 -5.616342842 2.521540579
-1.228807143 -6.067637429 -3.827112429
-6.432525 2.0565565 -0.07498975
5.12078 2.629707636 -1.048396909
-2.333258 4.113174 -0.697813
-4.371095385 -2.489723692 -1.629724077
-3.6273008 7.020222 -4.6958578
5.483603333 -4.671119333 -2.433727667
5.668826818 -4.397582818 -2.310239182
5.838081429 -4.496373619 -1.763361
4.018832857 0.5178768571 -3.147851714
-5.820321176 -0.2084771765 -1.186224529
-3.542316364 6.564657636 -3.480570091
-6.45460125 3.4155565 -0.1069235
-2.670334762 -3.284537905 -1.776882429
1.002298065 0.3558498065 -3.433530032
8.207520417 -4.378221 -0.5236239167
8.379631905 -4.392540762 0.05261995238
8.375445 -4.434449333 0.6740762222
1.605646471 -5.635141294 -1.652288647
-3.22439 -2.788756 2.667592529
-0.004657142857 -5.722367429 0.08059328571
7.590286429 -2.515771357 -0.5475445714
-3.772290588 -5.652203353 3.105180176
5.756421739 -0.2444446957 -2.749238826
2.189100417 2.2541565 -2.40782475
4.632128276 0.4046015862 -3.106258931
7.96337 -4.755299333 -0.373811
-0.0869525 7.152769 -2.615896
-5.5765688 1.511646 3.1159414
-6.0665368 -0.8392936 -0.506823
-4.864359167 5.820402333 -2.83472975
-0.77485 -6.078492 -3.943352
1.609659 3.241064 -1.079212
4.58996963 0.917394 -2.793762481
5.208949333 -4.954443333 -2.291750333
5.31090875 -5.076406625 -1.726324125
5.088751818 0.8172394545 -2.679019182
-2.083972703 -5.61503627 -2.210722081
-3.184578 2.089878 -2.2229666
7.45109375 -4.84796475 -0.98486225
-4.40596 -3.228264125 0.715564
-3.862523929 7.586161857 -5.293752429
-6.4788175 2.715444 -0.166141
1.16753 0.122764 -3.945569571
-0.8362211765 2.145367529 -2.308795706
-2.040455417 -3.23847975 -2.177021417
-4.428736129 -2.709378581 1.947333516
-2.666512 4.534078 -0.9837714
6.457416364 -5.159029636 -1.278627364
6.953212105 -5.031656 -1.125098368
-5.920756667 -1.244802667 -0.2800443333
0.4253434483 0.3848084828 -3.347803069
7.15357 -5.246206 -0.6621843333
-1.857769565 -5.642542522 -2.862385348
-4.191493333 -5.255116 -0.08259933333
7.625378333 -4.990709889 -0.5181937778
7.66812625 -5.09970725 0.06354275
2.650892222 -0.861626 -4.443153222
-0.2233242105 1.060136105 -3.078507842
1.603386667 0.1644033333 -3.958013667
6.348560667 -5.472878667 -1.035793
-4.364479167 2.7875815 -1.763573917
4.008420476 -5.730745524 -3.087518619
4.755840588 -5.647796588 -1.764009824
4.81527 -5.787522667 -1.260587667
6.45804125 -5.675640375 -0.510536
-2.026925172 3.339821586 -1.092960655
-6.00793 3.323434 -0.945589
5.223147308 -0.1948502308 -3.045168308
-2.343288889 5.155016222 0.3023767778
7.619430476 -4.466387429 -1.180840048
5.092556316 -3.772036 3.566905316
-2.73079 5.712548545 1.309634455
-6.3799895 4.577459 0.6345275
3.982584643 2.720101143 2.443097571
-3.632037778 -5.174568222 2.023986778
-0.7761540909 5.726789455 -1.031057364
2.789554 2.321880667 -2.451709667
-2.009793077 2.360247846 2.114549
-1.318704545 -0.8883850909 3.451512636
-0.7517796429 -5.1023035 3.686048643
7.204888889 -2.510126 1.437035667
0.616765 9.098994 -2.4570735
-0.1925585294 -2.641730118 3.107471647
-5.188488889 -2.148374889 -1.168461
-1.423653333 -2.612273667 3.277104
-1.38721375 -0.8802243333 -3.080926833
-3.033254286 2.039751143 2.765180429
4.434786667 -2.250859333 -3.809681
6.40402 1.562217529 0.7071995882
2.747294444 -1.439200444 -4.458986556
-3.990067778 2.229760667 4.152212333
-3.182492381 -2.479854571 2.960031857
-3.225635714 -4.892822429 -1.180051
0.4565346154 8.771428615 -2.831766769
2.175903667 -2.625341333 4.789286333
-5.84658 1.910994 -0.767611
-4.392732273 7.390598545 -3.541312364
6.94640875 -2.649649437 1.883037125
-0.2283783333 2.571910667 1.773463167
-1.393758929 3.223058286 -1.051869929
-6.053320345 -0.2375128966 -0.4926254828
-3.199034348 -6.125474696 1.320753783
6.400247083 -5.09648475 2.054049417
-2.639994231 -5.007328692 -1.695683692
4.761333333 1.179027333 -2.530044333
-5.667244375 5.33122525 2.632779
-2.513018889 2.575782889 -2.057241
-0.8145936364 2.647275818 1.842941273
-2.99601 -6.110546 -2.027151
7.603724118 -2.756643059 1.752557824
3.906806667 -5.965429333 3.469752333
6.1244 1.914344 1.136909
2.810624828 -5.580102207 3.752152793
2.703865 3.096144 2.247164
4.4347 -5.5144685 3.4625165
-2.592677826 5.707472261 -1.225977957
-1.374404815 5.766008815 -1.626102852
0.375086875 6.501144 -2.202465375
-1.4340124 -3.26025 3.2048686
-3.6170292 6.428538 -2.864793
-0.1682333333 3.057560667 0.1022695556
-3.162310833 0.38412275 -2.852216
6.242895455 1.486366727 -1.079875545
-2.15454 5.534669 -1.327716
4.32763 3.136994 1.680429
4.557485909 1.511371273 2.988391727
6.8191125 -0.300536 -1.63212
7.724852381 -3.829140286 2.103663286
1.014267391 8.128915739 -3.415444043
3.976035833 1.534664833 3.071439833
0.9974724138 0.433826069 3.638324517
-5.87836 1.374494 -0.161151
-6.139600345 0.3720246897 1.327525897
-0.3055878947 8.181683474 -2.360615211
-1.434585 -4.394436 -1.971411
-3.766601667 2.789135667 -1.779644333
-6.244432353 5.184870471 1.899287824
-0.1663710345 -3.253012897 2.950360379
1.467600303 8.667384909 -3.562159182
0.9162283333 9.157960667 -2.851007667
-3.953827778 2.731777333 4.177677333
-5.586216842 5.828783474 0.09542478947
6.843868333 -3.598969333 2.171149
-0.7572013333 -0.2270236667 -3.283060333
-3.140204839 -3.774076 -0.4866706774
0.4093966667 7.525523167 -2.886799333
-3.148873571 -3.588213143 1.208335429
-6.533562222 2.308049556 1.868293444
5.01076 1.979169 -2.0398085
0.4218914815 8.113575481 -2.256158778
-4.383325652 5.764680957 2.516589
-5.573735 5.927588444 0.7067423333
0.4439444 7.549822 -2.188201
0.950935625 2.3160065 2.691344625
-3.562666667 4.101827333 2.776385667
3.3375025 -4.626421 -3.72918475
1.564698889 -5.167741556 -3.586908778
0.02864307692 -1.385311385 4.139505923
2.776420833 -3.251618917 4.753184833
-2.604804118 -6.146395412 0.07556664706
0.3914285 -5.6952105 -0.499216
1.593361739 2.228298348 -2.41283013
-6.419087143 2.023336857 3.200446143
2.276535 -3.470836 4.597034
2.195929474 -6.019708105 3.721743737
-4.798125 6.092469 0.739049
-0.4146875 8.079694 -1.31440475
-1.139956667 6.762727333 -0.870051
-6.541511667 3.712110667 0.677899
-2.805630833 5.658560667 1.789497333
-2.2720975 2.809544 2.2952815
-6.625927667 2.762307333 1.883579
-2.006744706 2.927917529 -1.806948059
6.819028333 0.9035051111 0.07164622222
0.208711 -2.189484 3.858088
-6.579055714 3.348027333 1.858820429
-0.219353 -6.062778 -3.85891
-5.967225455 0.3204167273 1.725147182
-5.759361765 1.511841059 -0.5629127647
0.260154 3.042334 0.876349
1.0304 2.651360667 2.3741465
-6.011232 5.585854 1.753963
4.598514138 3.215042276 0.7115296897
4.010696538 -5.624867538 3.552518231
-6.677789583 3.375694 1.279931083
-5.576564 5.896979 1.2999565
-5.94383 4.942494 2.830129
-4.910749583 -0.8020718333 -2.262270583
0.16769 7.355927333 -1.965017667
-0.8039773684 -6.164207579 -3.501047316
-1.074775 7.377394 -0.728491
-0.824016 -2.616232333 3.229203
4.826066667 0.006820666667 -3.130791
-1.18821 -5.108854889 -3.334944333
-5.601836333 3.400284 4.236731667
-3.5641525 -3.5456185 -0.360591
0.57980125 -0.914116 4.69928525
-0.219745 2.435010667 -1.942659333
-4.8636875 5.514769 2.873324
7.243669583 -1.968680583 -0.5625668333
-3.942398 4.811614 -2.111103
2.831692857 0.9654297143 -3.063990643
-4.59257 7.921944 -4.911601
-4.8762605 1.557414 -1.592111
-4.42889 5.460327333 -5.056737667
1.615808636 3.401484909 -0.4831569091
-4.870984444 0.3013428889 -2.146656
0.9953525 6.567824 -2.165863
7.33281 -5.330506 0.497649
3.274905 -4.776596 4.087639
-1.42418875 -3.82274975 3.098474833
5.4557575 -2.5935785 3.3839715
-0.2685886667 -3.901081333 2.776935667
7.073336 -0.2087643333 1.271289333
-0.7570348148 1.005034741 -2.974569148
-1.884636875 -3.849086625 2.9371815
-3.482705 6.009544 -3.102946
-4.8103125 6.785494 -2.4163985
0.9986318421 -3.227210211 4.325485316
2.776480667 -0.8191413333 4.791471
5.751515 2.121854 -1.063259667
0.9832388235 -3.926701294 -4.263520412
3.561958571 -3.313723857 4.531474714
-4.995493333 5.749410667 -1.636823667
-4.593452083 5.810777333 -4.634155583
-3.57212 5.457594 2.783649
1.016951 3.323889 0.112916
3.152656 -6.113128 0.119539
4.37593 1.878544 2.851274
6.625462727 1.168112182 -0.5123264545
-4.316432353 -1.891164824 2.926837824
-0.1788368421 -6.059212842 -2.953424684
-6.260824583 0.3797660833 0.6953110833
-2.571381333 -3.121098333 2.489117667
6.496174839 -0.815472129 -2.308968742
-4.367296087 -0.2143038261 -2.497482739
-3.965718571 0.3907125714 -2.536688143
5.793078889 -3.793167111 3.044786037
3.3842392 -3.8297124 4.425829
-4.443931034 5.213397448 -3.490083759
2.167251364 -3.236258273 4.713773545
1.546061379 -3.818799448 4.387603828
3.426491818 -5.665080545 2.366071727
6.199153333 0.7880384444 2.343244556
-2.973255455 -4.477949636 -0.04678372727
0.7656614286 -3.930173143 3.954957571
3.437975652 2.918841826 -1.785268391
3.03396 -1.389864182 -4.340704636
-3.685303333 2.006260667 -2.045177667
-0.2724914286 7.597365429 -2.393955286
6.374255667 1.558194 -0.49575
-1.69807 5.544694 -0.217901
0.97891 3.30687019 0.7251275714
-3.822453438 6.994522125 -3.499343813
-3.6752364 7.617986 -5.8598458
-3.041795 -2.912436 -1.863436
5.622158571 -4.250538857 2.917756143
-0.2250464286 2.380151143 2.094691143
-4.998676 5.923084 1.916427
0.9613207692 2.998817077 -1.209544846
3.850304 -4.279567 4.140676
5.211369091 2.843687939 0.7313980909
4.091689091 2.981484909 2.103874455
-6.090851304 4.591194 0.08485508696
-3.6856505 -5.099599 2.533315
-0.9405945455 5.880830364 -0.652951
-1.364784375 2.66161275 1.8513615
-3.832802353 -4.954564824 -0.4632421765
-4.905485833 5.147839833 -1.707234333
-0.8455895238 1.690222571 2.640574238
0.4261684211 3.169636105 0.1081374211
0.9103715 6.485499 -1.7256115
-6.561160625 2.187569 0.167885875
-6.120136957 1.601763565 0.1008159565
-5.574785676 -1.982832486 0.7180392703
7.151099333 -0.2041066667 0.671331
-1.423671818 -1.991593727 3.366799455
2.818462 -6.049316 3.176359
-0.5389783333 -1.833101 -3.915272667
6.303524615 0.9226132308 -1.673675615
0.06804333333 -2.453112667 -4.432411
2.806948333 0.335246 -3.467488667
-3.581194615 5.156532462 -1.692802538
6.236228 1.464514 1.782478333
-3.619235 2.087444 3.251039
1.601032632 -5.681256526 0.1001521579
-1.515605 -6.108556 -1.6943835
-6.044862 5.584487333 0.144687
-4.88456963 -0.2668008148 3.005399741
-5.461606538 -0.8006740769 2.402567846
-3.140331429 -0.8140702857 -2.982782071
0.4469555 1.126194 -3.1253825
2.816304286 3.631346381 0.1258651905
-5.833094167 1.128719 1.402828167
6.157726667 1.348160667 -1.474477667
-4.412976957 5.987067913 1.938201609
-6.731293 2.758007333 0.6827866667
-3.559043333 6.3959315 -4.704871
-0.672942 0.231716 3.496194
-2.352068824 4.539164588 -0.5745562941
-5.35485 0.900944 -1.4791835
2.1891076 0.5536264 3.7088646
-0.7797205 0.4542415 -3.140352
-1.960516316 -4.426829684 2.930530579
-0.48512 -2.864841 -3.088851
2.176139583 -3.830421 4.515151917
-3.544732 5.335474 -1.297409
-4.33498 6.079594 -0.772611
-6.226534444 4.61746437 2.507752333
-4.359659286 7.562283286 -4.089088143
6.71149 -2.399976 2.297669
-5.5852864 2.154286 -1.1338486
-3.806450294 4.607188118 3.125420765
2.802762174 3.62423313 0.7180155217
1.586443684 -5.670209158 -0.5057936316
4.592014286 -1.414235429 4.261836429
5.182049429 -3.198309143 3.599361857
6.630985 -3.624106 2.175124
-4.621713333 -2.102474333 -1.878774333
4.805066 -5.846128 2.602093
3.452632 -0.7866928 -4.1434578
-3.2547075 6.056619 0.2092498333
-2.553528 -0.8259143333 -3.069448333
7.157404667 -0.2052826667 -0.526642
-3.754754167 -0.7800964167 -2.775838917
3.382495172 -0.2266863448 -3.990808586
2.776342083 -4.400098083 4.385759417
-5.685057895 3.377109789 -1.241559947
-4.73727 8.526794 -6.261771
1.598239048 -4.38897981 4.190667571
-4.72346 8.498394 -6.114361
3.376936857 1.565742571 3.183674429
1.42573 -4.655576 3.970495667
6.76133 -4.835066 2.244614
0.3273733333 -4.652729333 4.031649
-2.011727273 -5.979704182 3.532099
-0.164721 -5.781329 -2.72095
0.4122305263 -4.453188105 3.681648474
-0.1622423077 -4.606134462 3.660548231
-4.10148 -5.820996 0.480659
-3.351134 3.785634 2.884403
-5.580120323 3.959119806 -1.097196806
-1.20155 -5.801786 -1.703947667
-4.9165035 -0.8495545 2.9706125
4.668916667 -5.595665167 -2.31431225
1.4242275 -3.22060725 4.546704625
1.102944 0.132948 4.233948
6.960841667 -4.455301417 2.3235065
-4.016554 6.753194 -2.488501
1.014374483 2.229852621 -2.339875828
-1.79434 7.330027333 -0.7215843333
2.231486 -5.6621845 -0.4749845
5.566752 0.233718 -2.660975
-4.994447931 6.405283655 -2.257527897
4.255865 0.012399 3.950924
6.412904412 0.9771322353 1.910359882
2.294566471 1.061599882 -3.147601
-4.985205909 5.690121273 2.519256273
1.691498824 -2.583014824 4.690160765
3.375765 2.442727333 2.785227333
-3.166906154 -1.455122923 -2.901805615
-0.6788933333 -4.658867111 -2.803864333
-3.82358375 0.9711023333 3.1043165
-5.506927895 -0.2061670526 -1.641088368
-4.383029565 -6.095280783 -0.4568114348
-3.26021 5.681664 2.425334
-2.000138788 -2.597882061 3.127126576
2.210913158 -0.1013517895 -4.258291526
-0.20886875 3.019348167 0.7352715
-3.795654828 6.361049172 -2.290419966
-0.7146008696 -0.8374242609 -3.415439696
2.777015 -4.777479333 4.078834
2.42664 -4.780816 4.021159
1.17598 -4.796071 3.978964
-5.00942931 -2.694915655 0.09449727586
0.39665 -0.1620848462 -4.085724462
3.887169444 -3.779919889 -3.845438222
0.4431731579 8.796117684 -2.262797053
-3.262042105 -4.909189158 3.156876368
6.03151 -5.914406 -0.146161
-1.409884211 1.718272947 2.672755316
5.1663875 1.548158286 -2.190162786
2.811529565 3.532689652 1.314704652
4.004402941 -0.2673142353 4.264860471
3.411009091 2.805227333 2.513563545
-3.303675714 -3.442370286 1.445221857
0.9924412 2.725226 -1.659489
-0.048875 -0.40734 -4.01459
4.064815909 -4.467552818 3.833292636
7.009148333 -3.882680583 2.303035667
-0.06212941176 -3.778487765 2.916440765
3.923406154 1.975578615 2.889958231
6.783870625 0.8854065 0.646598375
6.326616923 -0.2378029231 -2.207193308
-0.96322 3.135982889 -1.007443222
-4.36657375 6.088069 0.30936025
-6.337808 4.614914 1.8743774
0.4397415385 6.255336308 -1.666318308
-1.460538333 1.834110667 -2.542771
-4.33833 -5.657209 -0.970255
-0.8386029412 2.133294 2.317297824
-0.8239479167 -3.25723225 3.127542333
-0.104145 1.849469 -2.531281
2.805715625 -0.2051944375 -4.169916625
-0.06292769231 8.597347846 -2.239470231
5.874243667 -0.1934503333 3.240768667
3.403693846 3.613040154 0.7199616923
-3.50856 6.409808286 -4.168279571
0.217625 1.856694 -2.540061
3.416061538 0.987994 -2.968358308
-1.392318333 -6.0413685 3.133893583
-2.85416 2.388844 2.858974
4.753745833 3.026835667 1.396640667
-2.612032963 2.853301407 -1.729623593
-3.659707143 6.063651143 1.483711857
-5.551767917 2.825839833 4.136616917
-0.1774045455 8.169666727 -1.628882515
7.591237222 -5.150029889 0.7189167778
1.576024333 -0.8181716667 4.815947
-0.1571770833 -5.107315167 4.213224
6.991225667 -0.217799 -1.125186667
-2.600849032 -5.632291806 3.755001903
2.798921071 0.2757279286 4.256465786
1.056973913 6.943720087 -2.253314043
5.124105455 -5.400112364 -1.530175545
-3.642030741 5.771971778 -4.113333593
-0.53469 7.352960667 -1.457181
-0.82269625 -3.833491417 2.981029833
-1.916282143 7.389036857 -1.068255286
0.400750625 -6.09642975 -2.983526
6.212215 -2.681597429 2.933235429
8.138560769 -3.217182154 1.833366692
-3.774991481 5.743079185 2.529507889
5.359085714 -5.870036 1.434696143
-3.809595625 5.811515875 -1.097118188
0.3857726087 1.529098348 3.061615087
-0.45485 3.080194 -0.206211
-0.2076754545 -5.683006 4.400076879
6.749238889 -1.965421556 2.279152333
1.603190476 3.469565429 0.6943299524
5.817495 -0.8265636667 -2.855829333
-2.013370714 5.764704714 0.03079078571
3.985835 2.289344 2.728703
-4.368315161 2.752081097 4.403548355
-3.748531429 6.881685429 -6.550318143
-2.5103525 -4.469851833 2.504493167
6.79997375 0.884094 -0.502576625
0.4062905882 -5.718127176 0.7393666471
5.203317273 -2.583659636 -3.338723727
-6.570615 2.243694 3.060749
-5.30393 -2.4460935 0.159774
1.005353333 3.248422571 -0.4931695714
-4.411417778 -3.250773037 0.1090638148
-2.852236667 -3.913572667 -1.285364333
-3.132282222 6.141471778 -0.0005621111111
0.3076854545 -0.08245190909 3.786145818
5.540506667 1.919760667 2.301752333
6.976274167 0.41951775 0.67136775
4.503883333 3.166294 1.269481222
7.16450125 -0.8362864167 1.271624833
-1.817556154 3.566478615 0.08315207692
3.379881 -6.0552695 3.117368
-0.7881442424 7.552112182 -1.055604333
-3.11659 0.274374 3.422703286
-2.246508182 4.549098545 0.07731036364
-4.409964545 1.655957636 3.712702636
-5.130006538 6.951578615 -4.029882154
5.759026471 -2.613998941 -2.843622176
-4.396669167 6.8106065 -2.27964475
-4.441060833 6.367110667 -5.2373335
2.89220125 0.597319 -3.14659475
-3.851403333 5.261449556 -3.450316
6.343476129 1.537848839 1.313616097
3.408951923 3.514128615 1.327586692
8.112767826 -3.24899687 -0.9648653478
0.3991436364 2.938144 -1.068714182
-5.947955333 0.878294 -0.388663
1.037666111 -1.968810444 4.686376778
1.437219615 6.914501692 -2.360467538
1.596809048 2.75181781 2.498847571
6.878959167 0.4143685833 1.271736917
0.1251 2.417794 2.188649
-3.823757083 0.4176519167 3.305702333
-2.604812105 6.276078211 0.03116057895
-3.805214167 -2.661306833 2.549989833
-2.135074348 3.373311391 1.892696391
7.8570275 -4.6733035 1.475569
0.5071336364 3.131948545 -0.4375364545
-3.851984444 6.097677333 1.258346778
-0.2272757143 6.742651143 -1.297273857
6.926566061 -3.192704182 2.015378394
-4.153208333 6.928069 -6.2934385
8.010021667 -4.280766 -0.9371043333
-4.38641 6.102603524 1.289020429
-3.808742222 2.265471778 -1.841219889
5.601224 1.388914 -2.054931
-0.81259 3.163290154 0.6982132308
4.6672844 -5.0275024 -2.9860186
-1.446638125 5.3568815 -1.07863725
-0.77371375 -4.443090687 3.013284
-5.158692857 0.3999447143 -1.850127429
-0.2191285 -5.659417 -2.313311
0.2405542857 -4.214647429 3.236980429
-1.3929475 3.324235667 -0.4788939167
-6.517591 3.227494 2.440261
-6.219444583 0.3745873333 0.09649358333
-4.332084286 5.536908286 2.905566143
-4.999664615 3.980255538 4.199581308
6.831665714 -2.008175286 -1.601281
-4.4823228 7.515934 -5.8817978
-2.594751923 -3.868027538 1.308193615
-1.461877692 -0.2040771538 3.362638231
2.793100625 2.5980315 -2.133605375
-4.386923333 -1.422887 3.122241667
6.677715 1.180610667 0.07251733333
7.615639643 -3.227482786 2.052337214
1.602679545 -5.657582818 1.919838091
-6.2139036 5.636362 0.714309
-4.420428077 5.410624769 -4.663400615
1.617243182 3.390280364 1.293249
6.401441579 -5.742374421 0.7272258421
3.448273 -1.423184667 -4.215505333
-2.588072857 -1.777130286 3.441210429
-1.408974118 2.135399882 2.359113706
-4.367469615 6.465567077 -1.666279077
-1.939634444 3.127627333 -1.530004333
-6.23619875 3.358902333 -0.5180730833
1.34755 8.491094 -3.179661
-1.893354091 3.484712182 -0.519881
-0.000795 -5.740666 0.7260573333
7.602305238 -2.455057429 1.374250429
-5.221154 -0.27581 -1.936141
2.1764475 -4.406022667 4.32656525
-4.468328333 1.823544 4.085014
-6.226964 -0.2336156667 0.099633
-0.19743 -5.680014947 -1.690917842
6.86361375 -0.8621739167 -1.723661833
-3.147965 -1.992773222 -2.710792111
5.916065 -5.08519975 2.093565875
8.401135455 -3.175613273 -0.6897428182
0.2581125 3.0440065 -0.566116
-3.683001923 5.769682462 -1.694578308
3.971934643 3.239572571 -1.044923143
-2.622607917 -2.119511 3.26890775
5.580433333 2.546960667 0.6862545556
-4.389529545 -3.143247818 -0.5024446364
-3.082498947 6.313420316 -0.4907031053
-0.1996042308 2.866305538 -1.074711385
4.006620333 3.377617333 1.309545
-4.67423 6.025294 -3.686041
-6.393694583 4.055473167 0.6761165
-3.465805 7.548219 -6.595666833
-2.712275625 -4.023282875 0.204544
-3.964346111 6.244244 -1.738656556
-1.371441429 5.745372571 -0.4080695714
0.750335 8.072760667 -2.524257667
-0.0814775 -5.759137667 1.327175667
-1.981944 2.613047333 -2.125516333
-4.6455075 6.256194 -4.103096833
-6.407818095 4.586660667 1.303387571
-2.705537273 -5.443071455 -1.911064636
-6.131963529 1.715976353 2.550283706
2.226657826 3.491994 1.322625957
1.547511304 2.853298348 -1.726841
-2.000607308 6.339847846 -1.662247538
8.04941 -4.789794889 0.1260112222
-1.483624667 -5.660282667 3.468252333
-0.211871875 -6.1667585 -3.413755375
-5.830965714 1.439222571 1.411929
-5.726797647 4.027999882 3.864290765
2.166467647 0.166684 -3.945246294
-0.8307463636 -6.116976455 0.1707180909
-2.948062 5.324774 2.136019
-5.6228785 5.721024 1.932283
-2.449642353 6.863494 -1.034326882
-0.19059 3.010934909 -0.4809391818
7.209506923 -1.403003308 1.281409385
4.0142575 3.463944 0.7129436429
-3.431665 7.570886857 -6.966493143
1.108308 -4.246798 4.078049
7.31395 -1.596176 0.422779
1.654727273 2.570330364 -2.106871909
-2.160556471 3.926729294 1.263600176
4.534122273 -2.559677818 4.155234455
-5.5430212 4.493906 3.656407
-6.232323871 1.632894 0.7245954516
-5.573105 -2.032233333 0.1082203333
7.193631667 -0.201965 0.07164266667
-5.0317444 4.561886 3.8338134
-0.1035523529 -4.410087765 -3.350801
-2.556707083 -0.1766230833 -3.086611
0.2156081818 -5.606391455 -3.804771909
-6.218842069 2.207821586 -0.5069337586
2.776512083 -3.8272985 4.545403167
-3.997715455 3.905821273 3.560650818
8.575590714 -3.738467429 1.155841143
2.836868095 -6.049621238 0.7030751905
-5.007333437 3.37360025 4.39216775
0.3910889474 -5.687104421 -1.098873632
-2.5840735 -6.1746095 -1.679103
7.495611463 -2.084616244 0.1004646098
-6.167147647 2.157408706 3.674347235
-1.411703929 6.927179714 -0.5466042143
5.401999167 -0.8016735 -3.114516833
-0.8245825 0.9720023333 3.079449417
-5.02033 5.2743565 3.157245667
-1.4287005 2.937929 1.3896085
5.956915652 1.661007043 2.006035522
1.631861622 8.099118324 -3.552502892
-6.120756522 1.715480957 3.117804652
2.20294619 3.562822571 0.7336137619
-3.760249615 -3.098387538 1.894720538
-1.391512059 -5.042649235 3.236966941
0.3038580769 -2.658599846 3.731385923
-1.817465556 2.929194 1.487785667
-2.664151111 5.750819926 0.6973675185
-3.170365385 6.029294 0.7139786154
-0.7769973333 7.994727333 -1.198608333
0.5290144444 -3.796196 3.670224556
-3.978112 -2.893964 2.109097
-1.917368846 3.416305538 1.323404769
5.271898333 -1.431949 3.832455667
-4.1581675 6.616044 -2.056996
-5.96066125 4.475094 -0.38815225
-1.29025375 6.92091275 -2.114942875
0.9562068 -5.6657504 -3.6460054
-5.190164286 4.580722571 -1.341048143
3.990874074 -2.612744519 4.444979741
3.389113846 2.108190154 2.984574
-6.539825 3.716294 1.277784
-2.519214375 5.8389565 0.3016815
0.3618622222 2.920238444 1.315926222
8.043207273 -4.811442364 0.6527626364
-1.291054167 -5.675975167 3.375779
0.9481729167 -5.006322667 4.232796917
0.5279782353 -1.368844235 4.702833118
5.208348857 0.9585654286 3.078351
3.15077 -5.845756 1.584479
8.141324286 -2.244121714 0.126401381
6.623288235 1.036564588 1.310409588
-0.9392961111 -4.897309333 3.230726778
-0.809098 -6.061952 3.1357615
2.15291 0.8404565 -3.205601
2.24063 -5.714148727 0.1267149091
-5.087081786 6.415958286 -2.833231714
-4.370059583 3.956735667 -1.699764333
-5.344161667 0.840444 2.277552333
6.376675152 -3.850665697 2.410208091
1.593371852 2.138682889 3.003857148
0.389746129 -5.022015677 4.357369
-6.142392917 -0.8436014167 0.1025631667
-4.958705556 5.78532363 -2.217657667
-2.62383 1.388960667 2.941048167
-5.677039583 5.144764833 -0.52783975
-5.096025143 7.565611143 -4.680515286
2.773221923 2.784813231 2.572430538
-3.7969044 5.984802 1.9169682
4.009086667 -0.8302446667 4.413898
-2.550421667 -1.474128917 -2.959648917
-5.8483475 -1.6250085 0.8206015
7.228074167 -0.8320926667 0.67193275
4.004465333 -5.001779667 3.585261
-6.051541 0.9763906667 0.09313266667
0.4333136 2.675882 -1.6751674
-1.946762857 5.767065429 -1.507904333
3.615394286 -2.710238857 4.596596143
-5.489823571 3.901236857 4.126837571
6.974786 -1.3939788 1.8847726
4.006810769 3.477317077 0.1236928462
0.9769625 2.876139 1.983208
5.749339545 -4.974030545 -1.517530091
-0.4423633333 -1.015772667 3.358882333
-4.3237925 6.928810667 -5.8426085
-2.1989475 -4.2757835 2.70377275
-0.6587675 0.200124 -3.206746
-3.226888333 1.729188444 2.748430111
6.489116667 0.4057395556 -1.724836556
-2.373448235 4.643517529 0.7323637059
5.7009512 2.077454 1.9090914
-2.071937931 3.973025034 0.7144524483
-4.384672 4.558594 3.718722714
3.962087241 -3.82602669 4.211929
6.828941905 0.3839644762 -1.095018619
5.197780588 2.774317529 1.325891353
5.081597222 -3.287696 -3.351815444
-0.2175852 0.3255552 3.500919
4.577034667 2.578480667 2.342710333
2.169596207 -5.079259448 3.884922448
4.615774667 2.849207333 1.930041333
5.105543 2.625359 1.8616515
5.389829167 -3.201167667 -3.080591833
-0.3234675 0.633819 3.3769265
-3.216763548 5.23205529 2.542389
-5.75363 0.3689917273 -1.148754182
-5.023786 2.723262 4.342281
-6.762751 2.761664 1.283234667
2.76692 -6.043286 -3.230057667
-5.505642222 5.573271778 2.395229
-4.981463478 8.049076609 -5.318788826
-6.45128 5.176668074 1.304116407
-4.438475333 3.338507333 4.244236
-0.7775938462 2.941147846 1.320936308
-0.07398 8.566444 -1.734344333
3.384477586 -5.737192897 1.921646241
8.1579185 -2.2177395 0.714457
2.813682083 2.915864833 -1.787851
-0.82436 -1.980230167 3.2775515
6.6585925 1.144444 0.72194525
6.344458889 -5.415227111 1.749630111
0.3887392593 8.154508815 -2.973301741
7.022542083 0.4212369167 0.07158608333
-3.2056612 3.361394 3.038071
-3.794885357 5.951215429 -0.4858163571
-6.464583333 3.582660667 2.028499
6.860643333 -0.2241576667 1.858
-1.420629231 6.361063231 -0.4716883077
-0.3551916667 3.095844 0.196484
5.765037419 0.9557520645 -2.223573258
1.617072 3.468234 0.129703
6.025939 1.779474 -1.139752
2.763545263 -5.104669158 3.767661105
6.977579167 0.4174006667 -0.5270364167
-3.193731053 -2.592463895 -2.270014684
5.870705 -4.439442923 2.572338231
0.43417 -5.7098935 0.139194
5.4210075 -2.76153975 -3.11523725
-6.57218875 2.241919 2.51069525
-5.9252 3.694294 -0.866951
-3.833146296 5.206182889 3.008701222
-2.608156667 -3.83317225 -1.649567667
-3.4828 6.077794 0.696394
-1.385340909 7.375639455 -0.6713773636
0.81294 3.029494 1.523729
-2.638338889 -4.656293778 2.931235667
-1.42399375 -4.390386 3.044453167
1.022195714 -0.3351024286 -4.492090286
-2.093344706 2.132758706 2.356985471
-5.7483925 4.723785667 3.277144833
2.176332667 -0.8181913333 4.810288333
1.560510833 -4.48025725 -4.053780583
-2.588742069 3.377449172 2.521164517
5.85292 0.9948485455 2.593170515
-0.1909325926 -0.797988963 3.708863074
3.400684 2.294784 -2.466082
-6.279463667 -0.2277273333 0.6987173333
-4.744326667 0.740494 -2.079151
4.476636471 -5.531381294 -2.859795118
1.717329167 -3.236289333 4.6702915
4.72487 1.807169 2.787959
2.195936667 -5.702668083 -2.324915167
-1.943263462 6.934051692 -1.636066769
0.3974331818 2.701284909 1.870792636
6.363808077 -4.426292154 2.300252846
1.011756538 -3.797206 4.179694769
-4.364039286 7.088347571 -2.870147786
2.176920667 2.171247333 3.059516
-5.050433333 6.990815212 -3.437350697
2.151496667 -3.178347333 -4.416450333
-1.986637667 -5.626084667 3.584798
4.93806 -5.920726 0.380729
-3.810691667 5.778957333 -4.702345333
1.6241525 0.249876 4.2494815
0.341996087 6.412867913 -1.200175783
-4.38012913 6.105711391 0.7184485652
2.251572 -5.966452 -2.539569
-2.089471579 6.306046632 -0.06333205263
-1.212785 7.912094 -1.62716725
-1.4270616 3.238774 0.7300398
-3.77420125 3.957298167 -1.683548917
2.2015016 0.2807528 4.2955106
-5.615579655 0.9591733103 -1.097363414
4.8210675 -5.983806 -0.0471735
-1.420100476 7.663079714 -1.060536238
1.596510556 -5.681574333 1.330433444
-6.158249048 5.62347019 1.328833762
1.003842143 1.986986857 2.935091143
-5.32259 5.483994 -0.878031
6.523255714 0.9653297143 -1.115990286
-5.099806923 6.048555538 0.7070551538
2.226971111 -6.040969333 3.290422333
5.149836429 -2.583002071 3.644466857
0.3749056 2.186642 2.526545
-1.1718475 -0.2800085 3.442829
6.1409325 1.923719 -0.3603035
7.304865 -1.737171 -0.126036
-3.755794722 4.567710667 -1.676926556
-5.604867917 2.133294 3.933434
3.410180909 -5.576386909 3.653039455
-0.7978129412 8.168376353 -1.663506294
-3.1755396 5.992926 1.3230838
-2.524370833 4.563064833 1.294587333
5.837345588 2.209076353 1.330871059
-4.999189091 4.960403091 3.513904455
4.454639 -5.113807 3.45869
-3.757116552 1.564059517 -2.257796172
-3.174627368 -6.101771789 1.913970053
6.51748 -4.832178 2.245079
6.837224444 -1.385976556 -1.660984889
-0.1702436842 7.027994 -1.581497842
-5.663275909 1.516462182 1.941008091
2.176908889 1.619027333 3.340270111
-0.18134 -4.355479684 3.099299
1.043832941 3.212652824 1.300180765
-3.48493 6.164944 -3.103476
-5.874084 -1.603046 0.056215
7.263879583 -0.8298126667 0.07236483333
2.206323158 -5.643693368 1.913908474
6.890452222 -5.406552667 1.245972333
8.649390769 -2.653222538 0.6603059231
-2.586479333 -6.008218667 3.603821667
-3.963028333 5.935410667 -5.895541833
4.5845416 -0.2492552 3.9055186
-4.921808261 -0.2508486087 -2.236024913
4.961116667 -1.461354889 4.077975667
-3.168025 -5.182336 3.533324556
-2.442290714 -4.010871714 0.689164
-4.995569643 0.9991082857 -1.764289929
0.3903555 -6.0390065 3.7223015
-2.6268235 -5.123327 3.570635
5.213158667 -5.717178 -1.137103667
-3.573146667 5.710134741 -3.522019519
-0.7945703571 7.556783286 -2.326410643
-6.122571429 3.961369 -0.5028520714
-3.944154444 -3.491084889 0.09146344444
-0.7814665 6.381784 -2.137866
1.003694643 -5.591661 4.311172571
-2.070383333 -5.217238222 3.483037889
-2.621027857 -4.812613857 3.205086143
-4.3648575 4.841344 -2.226856
-6.280903333 2.811102333 -0.5156805833
-2.167102273 3.909662182 -0.4664946364
1.549577778 2.991027333 2.158017889
-4.013736667 -5.375544333 -1.207927667
-4.10523 -0.433236 -2.593291
1.554798 8.537474 -3.819309
-3.229846 -5.643394333 3.6772
2.175480833 -1.987661833 4.947114
-2.713448125 -3.34671475 2.0198165
-5.27501 5.458094 2.781069
-3.31588 -4.826896 2.51378525
0.2437638462 8.646724769 -1.903090231
-6.603248462 2.757832462 0.1215870769
-6.428725417 5.155552333 0.6702619167
-4.985815806 8.225487548 -5.848322935
1.638571429 -4.921585286 3.928745429
7.417485455 -3.784418727 2.262783545
1.042436296 8.141471778 -2.79237063
7.298021538 -1.296044462 0.05388438462
-5.58451 1.697064 3.6018895
2.166852083 -5.68173975 -3.433356833
-4.881155263 6.278315053 -1.722867316
-1.991735357 6.959258286 -0.4470467143
-4.565827857 3.933108286 4.100586857
5.135228065 -5.036171484 3.003422226
3.39541 -5.0684035 3.7476935
-4.35886375 0.3497119167 -2.397251
-5.551924091 5.092425818 3.046105364
3.610904286 -6.006583143 -1.643125286
-3.484025 6.009194 -3.303061
4.615394 2.184664 2.624
-3.16221875 0.9541356667 -2.729216417
-6.49942 4.768160667 1.055382333
-2.6254964 5.190542 1.2849222
-5.452896316 1.574162421 -1.021064158
1.222495 3.128144 1.716939
2.786041739 1.559302696 3.34001987
-3.55422125 7.0240065 -5.903692667
1.559248636 1.567503091 3.310944455
-3.106724167 4.626748167 -1.246328083
3.592313333 -0.6331676667 4.593165667
2.199541739 -5.624558174 3.924914652
-0.33868 -4.843781455 3.836279
-4.3517 -1.905092 -2.286746
4.681669615 -5.665202538 3.205812846
5.602957143 0.7651225714 2.927724714
2.777159667 -2.628274667 4.749607333
-2.32911 3.540627333 2.159295667
2.192686563 2.81520025 2.546043688
-5.978235714 2.370751143 -0.9510438571
-0.1534757143 -5.703794571 -0.4969488571
7.21718375 -0.8337851667 -0.5259585
2.211827778 -5.634277111 -1.087328778
7.7600675 -2.2769535 1.1108715
5.846852609 0.3852344348 -2.384673174
-4.7851075 6.489002333 -3.9722285
-6.068932632 4.535246632 3.060091105
-4.398721739 6.186928783 -1.107989696
4.88035 3.071594 0.742049
-3.243465455 5.162454606 -1.133205848
7.446609286 -3.836975286 -1.432780286
-2.54889913 -2.569821652 2.95073987
-0.7007026667 8.035807333 -2.160210333
-3.38531 5.9698565 -0.5893785
2.775655 2.171574 3.073479
6.10461 -1.695946 -2.569601
-0.7094490476 2.980441619 -1.141251952
0.757675 9.110094 -2.542771
-4.947415909 3.936294 -1.530628273
0.9427610526 -4.499568105 3.877856895
-2.484077407 3.982556963 1.947855667
2.777927917 -1.995813917 4.846837333
1.02696619 -5.629462667 2.517899952
-1.989666364 -4.923334636 3.234860818
-1.791112143 3.493065429 0.7114775714
-1.4028256 2.212238 -2.3314814
-4.316062105 -6.100504421 -1.074950474
-3.172698333 5.863504 1.927744333
-5.742246875 4.65153775 -0.593797875
2.1675675 -0.409781 -4.447161833
-0.7865683333 6.9247315 -2.354103917
6.765236 0.28884 1.756815
-2.068080714 3.953361857 0.110364
-6.046769286 2.803565429 -0.9949095714
-4.403074643 4.562690429 -1.735787786
5.635897143 1.957636857 -1.492445286
0.124205 1.804894 2.705449
6.743165714 0.8006654286 1.179286143
-0.03784214286 8.115272571 -2.684345286
-5.5597812 -1.9858176 -0.4762146
1.190875 2.499994 -2.025541
-0.2044896552 -0.1952053103 -3.46907169
-2.187597333 -3.30006 2.693755
2.244596 -0.8372723333 -4.561727667
6.254616875 -0.833471625 2.9709915
-3.219497059 1.643223412 -2.485722176
4.029032571 0.9655511429 -2.890830714
6.272218889 -3.177457111 -2.217758778
-0.97779 3.103044 1.076579
-6.649199583 3.371039833 0.6796348333
-0.2556604167 5.948644 -1.2087335
-0.8392466667 -0.234918963 3.51619937
8.076555455 -2.808160545 1.713519909
-4.70893 0.942994 2.845384
4.018055 -1.431151 4.479196857
6.917858889 -5.466508222 -0.4671432222
-6.309021034 3.991425034 0.06833037931
-3.841015625 -3.418447875 -0.511522875
-0.77869 6.268232889 -0.608856
2.801284333 1.549964 -2.910664
-3.836447895 -2.165155474 -2.415094158
6.938102759 -0.8241866897 1.892699345
-0.2067134483 7.530045724 -1.718880655
-3.185537037 2.789997704 -1.732052852
6.5367205 -2.0543855 2.5770655
8.639514167 -3.782352667 0.072069
-3.470406 7.982854 -6.936935
0.400714 0.838094 -3.233467
-1.459917143 2.394079714 2.118481857
4.6129805 -6.036215 -0.4883375
0.9678976923 -2.605384077 4.502610923
-1.48643 7.583834 -1.705122
6.938870741 -2.010989333 1.923375667
-4.1373 6.042319 -0.9559985
-6.231995588 3.992576353 3.098459
6.501000312 -0.238507875 2.525496187
-0.7976016667 6.575527333 -0.9284576667
-4.367770417 3.373398167 -1.775524333
-4.942607273 2.211489455 -1.538451909
-4.3622275 2.201810667 -1.72669725
2.207468261 -6.104278174 -2.862302304
-4.921446471 6.914576353 -2.900578059
-1.812937778 6.368282889 -0.2354932222
-5.022300556 6.032082889 1.351358444
-0.17331 -3.495736 2.814809
-4.564425 1.267994 -1.945311
-3.829084643 6.424901143 -6.442027071
4.407367273 -5.998734182 -2.266888273
1.12586 -2.360776 4.618699
-2.68105 6.568055538 -0.3603494615
-1.422084167 0.9742065 3.10139525
1.055847941 8.783511647 -3.408702471
7.604141034 -4.468535655 1.921232448
1.63646125 3.19442525 1.84626025
-1.440777333 2.614720667 -2.090582333
1.59833129 7.505374645 -2.908718742
8.276654857 -2.603236286 1.361565
-2.00215 -2.671944261 -2.411161435
4.3557 -3.075931 -3.803506
-4.328257308 -5.676603692 0.07735784615
-3.135635217 3.974224435 2.618619
-2.634175357 6.373897571 -1.155260643
1.012797714 8.752231143 -2.898669857
7.3655475 -4.1938535 2.2669865
-4.315997931 8.565731931 -6.502908586
-4.959055938 -2.558245062 1.30436775
7.40918 -4.8803 1.730499
-6.596863871 2.757310129 3.090510935
-1.953655333 -0.8229493333 -3.074678667
-6.626544 2.197349 1.264765
5.188348182 2.17289097 -1.666965545
0.155736 8.255734 -1.915447
-0.2193766667 2.790948167 1.328964833
-2.578265333 -1.958601333 -2.723071
7.245592917 -1.392530167 -0.5252851667
-3.790679545 6.093075818 0.7187094545
1.575903333 -1.998837667 4.801944417
0.79192625 -2.13805975 4.5596065
8.229687105 -2.583783368 -0.4795215263
3.437649667 -2.005813333 4.709957
-4.364603333 8.1881565 -6.48760225
4.447572857 -2.620113143 -3.820385286
6.13633 -3.600266 2.867929
-5.596055143 1.001954 1.924264143
1.5898656 7.077394 -2.8734346
-5.000453793 2.173362966 4.231467966
6.673633333 -0.03139933333 2.149949
0.7515657143 8.793708286 -2.498376714
3.11913 3.080794 2.249509
-3.928380833 5.374760667 -4.044011
4.622976552 -2.036343931 4.233291414
2.732166154 0.5482147692 3.734615923
-0.1473504545 6.343803091 -0.954336
-2.361465455 4.132703091 1.424107182
-3.253267308 -2.046532538 3.260808231
5.818789 -1.46015 -2.873457333
-0.5914 3.057044 -0.697916
2.198862083 3.272885667 1.919855667
-6.001567143 1.725794 -0.3932252857
-1.978984737 -2.017816526 3.327938474
5.731309286 -5.981392429 0.6221818571
-2.585970968 2.216394 2.540744161
-0.2686230435 -2.030909043 3.247835522
-3.899873333 5.519560667 2.852789
-3.707284 6.384614 -5.8894062
-1.998778889 5.205605111 -1.095825815
-4.977282632 6.013467684 0.09763478947
1.5738635 0.507433 3.7208085
5.08977 0.3034723333 3.575099556
-3.806340937 -2.039696938 3.072655875
-0.249525625 1.7485315 2.6741915
6.558797826 -3.278350783 -1.749531
-4.52538 4.967919 3.51334275
-3.910910526 8.062167684 -5.975314158
6.759255 0.755294 -0.925336
-3.812836087 -0.8263277391 3.554403783
4.640799375 -6.038231625 1.347448375
-2.94646 6.278714 -0.868907
-1.208336667 7.461794 -2.071223222
-3.55715 -5.943296 3.443169
-4.934768421 6.999051895 -4.598623632
2.234779524 -5.706671238 0.6947794762
-4.807922 6.148614 -1.266091
-4.2719125 3.999899 3.86526
-2.20542 7.110716222 -1.127857667
-3.771191667 3.373989833 -1.751240167
-4.53316 4.975330364 -2.388552818
6.639595 -3.422911 2.185644
-2.6236725 0.9760898333 3.160864417
3.3350424 -2.6010712 4.6718798
0.4311553571 -2.025346357 4.318961143
-6.562935625 3.34105025 0.174294625
6.12668 -4.684996 2.212539
0.4552325 7.073294 -2.668684333
-0.206068 6.883594 -2.4642235
-5.568250833 1.494052333 2.500554
-4.302808333 6.364110667 -5.838167667
-5.909532857 -0.1598102857 -0.892781
-3.904575 5.838709 -5.2801055
-3.175055 3.369085667 -1.591182667
-2.1937 -1.811636 3.455865
2.2773 3.087894 2.240629
-3.073386667 -1.756359333 3.438939
-4.4317748 -0.8400064 3.2631622
2.823474167 -6.009249333 -2.480871833
-4.179631111 -1.309437111 -2.634509889
3.976422222 0.922644 3.593237333
-2.6018035 -6.1702135 -0.496389
0.416886 -5.655371 -2.292461
1.626271667 1.921260667 -2.616457667
6.0192375 0.524624 2.727429
-6.423010909 1.964475818 2.484952636
4.875166 -5.189422 -2.447861
-1.513225 5.350274 -0.561606
0.97652 -1.443074333 4.811212333
1.60897 1.573510129 -2.911291968
0.9751235714 -6.096443857 -3.411334571
1.639090588 0.8460292941 -3.246125118
2.176058333 -1.438495167 4.867841083
-2.728483333 4.553337333 1.910720667
2.777369167 -1.441973917 4.831400667
5.15963875 2.066560667 2.41368275
0.31365 -0.7662796 4.4232426
3.362048462 -1.422422538 4.690107846
2.165092143 0.9606297143 3.498150429
-5.44255625 0.3768465 -1.56551725
-6.308601667 3.993130667 1.876193
-4.396135 6.056672571 0.007916142857
-5.114897368 0.3807655789 2.656126895
-6.63478375 2.150402333 0.68636775
-0.833122 -4.294238 -1.944390333
-0.2507144 -0.824478 -4.1127706
0.8508 2.456544 -1.974921
-3.907550625 -1.526395375 3.318540875
5.014036667 -0.4491926667 -3.233794333
-2.4869 5.180577333 0.69829025
-6.50789 4.744269 0.8721165
3.399039615 -4.414998308 4.270168231
-3.423785 -1.5506435 3.3902465
-3.1828155 -1.372802 3.4923525
0.508816 -4.286726 -3.869704
6.315710714 -4.877615286 -1.471513143
-2.623608333 -1.39607975 3.557729
-5.13634 1.650477333 -1.285951
6.197918889 0.3596906667 -2.103719889
-0.7979957692 3.214297846 0.1076674615
-2.109336471 -1.388873647 3.501353118
-5.926866667 -0.727181 -0.8810593333
3.289694375 -3.2109085 4.681339
-5.027578929 5.796569 -1.077555286
-1.491332941 -1.440683059 3.365640765
0.194445 -4.035466 -3.755486
-2.020980588 1.740888118 2.679067824
-1.258138571 -1.334303143 3.445680429
2.789925833 3.165669 -1.457291
-4.903162 7.783254 -5.675677
-1.874191053 -6.072417053 -2.859821
6.0366325 -3.2361985 -2.51176725
-0.74284625 -1.459921625 3.307089
-0.232271 -5.243309 -3.826325
7.998966667 -4.753679333 1.126282333
-2.802317 2.817634 2.903947
-0.41427 -1.444503778 3.289357889
5.314120556 2.337732889 2.016995667
3.664792 -1.418998 4.599043
-1.3865836 2.933466 -1.737039
0.9777533333 -0.8226306667 4.771781333
5.606298571 -0.3248345714 3.457071857
-1.12024 7.951694 -1.348261
-1.30158 3.106754 1.077077
-3.927907 7.458799 -4.6809625
1.37698 1.201194 3.406474
5.073696 -4.788934 -2.770685
5.773558824 -3.229265706 3.213859588
-1.977382 -6.114711 -2.281757
2.793016522 3.38113313 -1.069510565
5.728662 -3.222834 -2.811871
-0.987435 -1.3163135 3.44867775
-3.660247407 6.362197704 -5.309158407
1.591057059 -0.2757201176 4.710895471
4.69661875 -0.658251 3.9913015
-0.1600208333 -1.403425167 3.730596917
-0.1784919048 2.638294 -1.641259571
6.09531 1.874594 1.482369
0.9699342857 6.801501143 -1.821459571
5.092447 1.401474 2.910627
0.3971994118 -5.671215412 -1.675752176
-6.348622778 2.046838444 1.898040667
1.04881625 -2.023110583 -4.774448917
2.220160909 3.569848545 0.1274749091
-6.107156296 1.683516222 1.287372333
-1.429265 -2.440079333 -2.617812667
-4.57032125 6.370244 -4.63719725
8.0192 -2.8404585 -0.835821
-6.036994167 0.3621419167 -0.5027676667
5.375741429 1.772808286 -1.895728143
-0.201348 2.112374 2.371869
2.8185052 3.56803 -0.4940994
1.640118529 7.570720471 -3.435628353
6.6593525 0.586334 -1.3237885
-5.821240667 1.052674 -0.6227663333
2.164786111 -5.169047667 -3.551466556
3.3688025 -0.8610885 4.712448286
4.675364074 -2.001105259 -3.649805444
2.73739625 0.13499275 -3.870551
-0.1323784615 -2.616945615 -4.094682154
-3.686283929 5.134344 -2.295286357
6.411644333 1.573827333 0.1199053333
-0.3770366667 0.5823273333 -3.174471
-0.43584 7.750594 -1.369011
-3.780944615 2.187978615 3.728404
-3.769947778 5.198482889 -2.842419519
-3.2234725 -0.8343705833 3.569613167
6.363227083 -4.398142667 -1.560431833
-2.62343875 -0.8298680833 3.631086917
-1.512115385 -0.8120329231 3.375431308
-0.8880842857 -0.8018145714 3.462497571
-4.37609 5.237742 3.2299098
-3.722048286 8.191696857 -6.481496714
1.000832381 -5.650076952 -1.691093381
-1.350325 -1.47307475 -2.910820167
-0.733774 -0.905554 3.367161
0.1165 3.071694 -0.142701
-6.522985 3.173819 2.982489
8.43588 -2.412138222 -0.002323222222
5.212320909 -0.8144584242 3.808837182
-0.54065 3.039194 0.940989
-4.176815 3.568169 3.942229
-0.1859516 1.540822 -2.7509214
-6.594214333 2.765210667 2.482773333
4.587024286 3.224372571 0.114579
2.938751875 -0.757395375 -4.294109125
-4.411892812 -0.22563225 3.281024625
-1.76429 -6.048926 -3.323639
1.001202 1.074014 -3.1261075
1.097522 3.133984 -0.97179
-2.599817857 2.213083286 -2.313327071
-3.758600952 -0.2798940952 3.523739476
5.898348519 2.241549556 0.1135345556
-3.223562333 -0.1987526667 3.594449667
3.3785692 0.2175208 -3.4475274
-2.638080714 -0.2225331429 3.539166143
-2.058636364 -0.2438319091 3.494217182
0.9096333333 -0.1589369524 4.446908048
4.94204 -4.164341 3.508029
1.09897 -0.3501645714 4.677864714
3.418016154 3.618686308 0.1273066923
2.176371667 -0.2665098889 4.714999556
-2.33188 5.941494 -1.420351
2.726426923 -0.3130767692 4.662811308
-3.765562759 8.221642276 -6.937291345
3.37543 -0.21497225 4.441705667
-4.325331923 -3.104567538 1.280915923
4.5837796 2.113702 -2.178573
2.174150625 2.5974565 -2.1164335
-4.366596667 7.731012519 -4.674901
0.57614 2.561794 2.256859
-5.30838 2.403294 -1.394521
-3.974491 -0.074554 3.368038
5.880944074 2.24536437 0.7099123333
2.834873636 -0.073886 4.560029
-4.384395652 6.034076609 -0.4791636087
-6.305964667 3.995750667 2.47613
-4.422817083 0.9604023333 2.907631917
-4.766761304 5.809228783 -3.423420565
-2.115521 5.214574 0.006574
6.0439525 -2.0542785 -2.573956
-6.199390938 -0.2269613125 1.306394938
-3.22376 1.386552333 2.9324565
1.539972857 -0.01952314286 4.531056143
-1.961359167 0.9708773333 -2.934986
1.082398333 0.820394 -3.221052667
1.575919583 -1.43838975 4.87608275
5.392760833 -5.117924333 2.657310667
