# .PCD v0.7 - Point Cloud Data file format
VERSION 0.7
FIELDS x y z
SIZE 4 4 4
TYPE F F F
COUNT 1 1 1
WIDTH 1195
HEIGHT 1
VIEWPOINT 0 0 0 1 0 0 0
POINTS 1195
DATA ascii
0.1954656703 0.4283082482 -1.723639179
0.1336794185 0.4272233712 -1.722281399
0.07370461401 0.4262077153 -1.720671434
0.01454308766 0.426294917 -1.720593439
-0.1311880022 0.3759000003 -1.492639995
-0.2486799955 0.4320499897 -1.755800009
0.3729436091 0.4194241663 -1.707988888
0.1921392099 0.4193871029 -1.707818427
0.1315063647 0.4193796958 -1.708124237
-0.04934959376 0.4193759365 -1.70744063
-0.1088574546 0.42337909 -1.703711358
-0.4032050073 0.4406799972 -1.797500014
-0.1319767836 0.3647143285 -1.282078362
-0.4055599943 0.4188449979 -1.708450019
-0.411741427 0.424135719 -1.731885723
-0.5298350006 0.4394849986 -1.799500018
-0.5240733226 0.4173966646 -1.715733329
-0.5536249876 0.4188250005 -1.721599996
-0.6446650028 0.4355449975 -1.79035002
-0.6398120046 0.4236379921 -1.744179988
-0.6881800095 0.4159000019 -1.716500004
-0.1668945177 0.3485612941 -1.285187763
-0.1297259986 0.3490980089 -1.437700009
-0.7907000184 0.4132100046 -1.719300032
-0.8057500124 0.4179700017 -1.746199965
0.3357599974 0.3287999928 -1.397400022
-0.5259671568 0.3996083255 -1.673992389
-0.7054107038 0.3974252811 -1.669625353
-0.7552748938 0.397531809 -1.670509576
0.413567564 0.4015315378 -1.678183328
0.2537038251 0.4009672509 -1.677780075
0.07391723825 0.400612617 -1.677110547
0.01310766352 0.401493563 -1.678517624
-0.2464733331 0.4004352369 -1.675733334
-0.3464896702 0.4015979343 -1.677531819
-0.4659596522 0.4008026084 -1.67595913
0.1938611154 0.4004269315 -1.67698725
0.1344594075 0.4007594867 -1.677618977
-0.04585353843 0.4009560771 -1.677697695
0.8900966644 0.3779833416 -1.600800037
0.4131200016 0.359160006 -1.583500028
-0.1653220456 0.3203992652 -1.300578919
-0.2003229657 0.3280620694 -1.304353106
0.4151767053 0.3722768291 -1.628246342
-0.346003503 0.3718538707 -1.628182485
-0.406129336 0.3718118487 -1.628086256
-0.4661366498 0.37147909 -1.627042582
-0.5261524277 0.3717450949 -1.627018575
-0.6460582854 0.3719037743 -1.626630394
-0.7063959605 0.3718338911 -1.62600788
0.1935233165 0.3710028637 -1.628436177
0.1334256131 0.3708711799 -1.628292927
0.07337834961 0.3712236407 -1.628786405
-0.04712499524 0.3713068396 -1.628582078
-0.1051518247 0.3717270242 -1.628878538
-0.2134800007 0.3215533296 -1.437466661
-0.7559535503 0.3719891918 -1.626738713
-0.6469458821 0.3539854878 -1.595964703
-0.7058120966 0.3543599996 -1.596137208
0.1943652383 0.353375238 -1.599010713
0.1336153845 0.3532342303 -1.598899996
0.07462866662 0.3534405948 -1.599039286
-0.04806927293 0.3534164774 -1.598565913
-0.1056697403 0.35365 -1.59892466
-0.2433478115 0.3539196877 -1.598790623
-0.4072277466 0.3538884512 -1.598057744
-0.4648759993 0.3540095384 -1.597886153
-0.7554796155 0.3542857697 -1.597923072
0.3133607903 0.3533138158 -1.598794741
-0.1282204002 0.3202987981 -1.381239996
0.8160099983 0.3578599989 -1.653900027
0.3578499854 0.276730001 -1.336899996
-0.4660141237 0.3320080524 -1.560221424
-0.526127681 0.3323176819 -1.560540071
-0.706641856 0.3334854285 -1.560703212
0.4172247477 0.3316361145 -1.560443168
0.1938331431 0.3306298727 -1.56070381
-0.04551391223 0.330710031 -1.559876485
-0.1034113411 0.3314017055 -1.560831432
-0.2404767249 0.3309268997 -1.559687718
-0.2863790963 0.3313955761 -1.560323364
-0.3463141441 0.3317895624 -1.560826169
-0.4056411892 0.3317132473 -1.560199679
-0.8385350108 0.3434399962 -1.675799996
-0.8084999919 0.3374499977 -1.624066671
0.3140812502 0.3060541461 -1.517611842
-0.1313919791 0.3247300518 -1.303191146
0.1928702022 0.3056671625 -1.517331757
0.1334198616 0.3054254866 -1.516752778
-0.2354035644 0.3078818275 -1.515055648
-0.2864921486 0.3057664421 -1.515612272
-0.4071316765 0.3058375449 -1.515243712
-0.4665228492 0.3059580383 -1.51489114
-0.5259274404 0.3061673772 -1.514965855
-0.7055874366 0.3067879373 -1.514959375
-0.7502675738 0.3064971426 -1.514477149
-0.8057950139 0.3115424961 -1.576025009
-0.405927169 0.2888251209 -1.484987954
-0.5262045943 0.2894212829 -1.485202701
-0.6449608755 0.289834306 -1.485245259
-0.7070627944 0.2895527936 -1.484008827
-0.2358359666 0.2888627739 -1.485791592
-0.2868038995 0.2889081937 -1.485744072
-0.3460801179 0.2889062955 -1.48556588
-0.4664865881 0.2888782347 -1.484945296
0.4193405036 0.2877762625 -1.484835349
0.3134584868 0.2884192426 -1.486978378
0.2533775535 0.2883048944 -1.486697873
-0.7529055769 0.289781802 -1.486729509
-0.8069400191 0.2867200077 -1.539399981
0.815460453 0.336745303 -1.644005303
0.8280011696 0.3067964701 -1.654505891
-0.1992070735 0.2690188619 -1.332583739
-0.6457183256 0.2641489999 -1.440342432
-0.3463273118 0.2625859804 -1.440201694
-0.4061505652 0.2627918186 -1.440150859
-0.4662049479 0.2628144011 -1.439699218
0.4207022474 0.2604399535 -1.438497701
0.07386793971 0.2616834452 -1.440802169
-0.233882679 0.2619487224 -1.439752337
0.3735996563 0.2885363429 -1.486748569
-0.2857324227 0.2626320906 -1.440877911
0.8228099942 0.2831999958 -1.648900032
0.2536440541 0.2610941276 -1.440671498
0.3731345879 0.2617423205 -1.441546648
-0.2877947771 0.2416751115 -1.405076667
-0.3457144449 0.2416380005 -1.404298887
-0.406348388 0.2417065588 -1.404060219
-0.525118235 0.2419382354 -1.403100001
-0.5875109605 0.241855426 -1.403162766
-0.7061324778 0.2423250475 -1.402520003
0.5857300162 0.3400099874 -1.485200047
0.3747622723 0.2410534842 -1.406016671
0.2563514472 0.2405572367 -1.405439471
0.1333269337 0.2412550668 -1.406119998
0.01399215557 0.2414471248 -1.405812499
-0.0458029366 0.2410546317 -1.405295797
-0.1103023302 0.2489301788 -1.391200895
-0.7491507677 0.2652293075 -1.442107693
0.8501148378 0.2891270941 -1.641541939
0.4874100089 0.1894050017 -1.147049963
-0.8095650077 0.2599799931 -1.497650027
-0.5263147059 0.2244927387 -1.372819381
-0.586497216 0.2247654362 -1.373286084
-0.6460937551 0.2244537875 -1.372400661
-0.04676692974 0.223423099 -1.374333069
-0.3461879831 0.224407171 -1.374082913
-0.465732938 0.2245140651 -1.373567653
0.4234941221 0.2228280257 -1.374423684
0.3140229678 0.2233746978 -1.375453847
0.2531995623 0.2229596451 -1.374639616
0.0737949479 0.2235026634 -1.374960575
0.01385149729 0.2237400755 -1.375193451
-0.1072928949 0.2230818181 -1.371029664
0.8307271842 0.279389062 -1.656628132
0.8400249779 0.2364249974 -1.657500029
-0.2252099961 0.1783300042 -1.290799975
0.3735985646 0.2230782043 -1.374941161
-0.2865664085 0.1943374174 -1.322198449
-0.3463057164 0.1942680549 -1.32144558
-0.4663291252 0.1945570124 -1.321139431
-0.5496500134 0.1783200055 -1.290699959
-0.5261071162 0.1944653525 -1.321025104
-0.5859583664 0.1948666237 -1.321262796
-0.7062840868 0.1950448729 -1.321390995
-0.7015439987 0.1783849984 -1.290240002
0.8615800142 0.2253199965 -1.643100023
0.4257540395 0.1930630795 -1.323193047
0.3133899778 0.1930500668 -1.323045313
0.2538275492 0.1933024728 -1.323289154
0.07369601 0.1936548178 -1.323543526
0.01384105982 0.1936748209 -1.322979085
-0.04621973711 0.1938493478 -1.323120948
-0.1072749497 0.1948912983 -1.323071125
-0.347156919 0.1771423072 -1.291830778
-0.4106340011 0.1772353331 -1.292500003
-0.4712284643 0.1772353855 -1.292484614
-0.745741867 0.1957005688 -1.323265856
-0.2265191876 0.1769948646 -1.292932436
-0.2871206876 0.1770806873 -1.292755172
-0.6467939854 0.1768640012 -1.291820002
0.1949542612 0.1762831482 -1.293759258
0.1353071438 0.1766626525 -1.294293876
0.07427377947 0.1764790007 -1.293644006
0.01346492202 0.1766379162 -1.293800004
-0.1014900951 0.176649761 -1.293026198
-0.1643948893 0.1767751118 -1.293406675
-0.4457399994 0.429519996 -1.752000034
0.4249430773 0.1757484625 -1.293761535
0.3753945821 0.1757360417 -1.293931248
-0.4659376196 0.1594297355 -1.260580775
-0.6461251621 0.1596880191 -1.260169906
-0.2262415176 0.1584720289 -1.260956068
-0.8920599818 0.3218899965 -1.71359998
-0.2860760679 0.1588122329 -1.260831065
-0.3459250724 0.1593359156 -1.261166938
-0.4059517716 0.1591748182 -1.260456456
0.07418618237 0.2885384372 -1.486711979
-0.5859425834 0.1595914393 -1.260340962
0.1937447777 0.156891038 -1.260294893
0.1937246115 0.2884449738 -1.486850779
0.07338450158 0.1574522523 -1.260631151
0.01349006843 0.1576686868 -1.260854905
-0.106577338 0.1579936759 -1.26096137
-0.1663323332 0.1581413811 -1.260702381
0.3140198442 0.156497331 -1.26026343
0.6760100126 0.1423949972 -1.381550014
0.1934602976 0.2614324315 -1.44090546
0.07373714219 0.1290393321 -1.211137713
0.0138034576 0.1291266528 -1.211078795
-0.046654106 0.1291209565 -1.210503536
-0.1062202347 0.1291684086 -1.210981632
-0.286107684 0.1295692017 -1.209685627
-0.3462927258 0.1296661925 -1.20943527
-0.4065403317 0.129719379 -1.209413665
-0.4662393938 0.1298808786 -1.209320503
-0.5262938027 0.129941111 -1.20883547
-0.5856551261 0.1297149189 -1.208087529
-0.64556993 0.1299190462 -1.20854442
-0.9029366771 0.1512633314 -1.45116663
0.3130593834 0.1285730333 -1.212117481
0.2532191752 0.1283214998 -1.211694999
0.1931733332 0.1288993752 -1.212154858
-0.465776318 0.1126959701 -1.180429354
-0.5258881124 0.112607801 -1.179298433
-0.586237206 0.1127539534 -1.179297092
-0.1062447892 0.1120829503 -1.181083911
-0.2250018264 0.1122997925 -1.180208713
-0.2863524201 0.112646941 -1.18016301
-0.3455027928 0.1123382432 -1.179618018
0.2533914118 0.1117716863 -1.18231647
0.418908379 0.305535542 -1.515659464
0.1338062122 0.1118624241 -1.181725761
0.3129109442 0.1112706035 -1.182279244
0.07384529782 0.1119545037 -1.18171641
-0.8680749834 0.1408799961 -1.388199985
-0.9202799797 0.119380001 -1.424349964
-0.9982150197 0.1391649954 -1.561800003
0.7949480846 0.141694841 -1.670893621
0.8475918997 0.1206542864 -1.648495237
0.8395663194 0.1303310529 -1.662951314
0.8655499816 0.1162299998 -1.651899993
-0.8195199966 0.08269499987 -1.230800033
-0.6500925124 0.4171000049 -1.721399993
-0.9084599912 0.1032825001 -1.380649984
0.6936166684 0.1100133335 -1.543333332
-0.466480782 0.09104738407 -1.14098073
-0.5859358696 0.09122542758 -1.140364347
-0.1662099279 0.08984409869 -1.140347288
-0.4061713174 0.09056488791 -1.140193808
0.01339477955 0.08926900356 -1.140498935
-0.04627191594 0.08933006293 -1.140117619
-0.1064086317 0.08957903455 -1.139913943
0.1938391277 0.08852215429 -1.141037169
0.1337221408 0.08885767467 -1.140823022
0.429134345 0.08785690294 -1.140555118
0.3735616759 0.08775037171 -1.140597486
0.7499464265 0.1087697575 -1.607878569
-0.748510797 0.1093576804 -1.182184005
-0.646937853 0.3981746009 -1.671196934
-0.8825350106 0.09259299748 -1.330074996
-0.4063695903 0.06646420505 -1.096451709
-0.5856553052 0.0664389057 -1.094466329
0.465233326 0.06069899971 -1.105166674
0.6836400032 0.3860400021 -1.677899957
0.4297112288 0.06458465175 -1.098338569
0.3738412656 0.06451310474 -1.098873459
0.2537492229 0.06484834037 -1.097994099
0.4156207991 0.3545568013 -1.600311999
0.1325734165 0.065453501 -1.097884286
0.07315246985 0.06522488456 -1.09734
-0.04655564157 0.06548640822 -1.096228344
-0.1062679405 0.06583518944 -1.096512774
0.7010899782 0.1280599982 -1.594799995
-0.3463321695 0.09013205149 -1.139926226
-0.1661494335 0.06590637481 -1.096201304
-0.04602267636 0.1577151923 -1.260834977
-0.2261314026 0.06580802045 -1.096139365
-0.2869136514 0.06588885032 -1.0960034
-0.5262391166 0.06661358838 -1.095469537
-0.7407247651 0.06628890566 -1.098519041
0.8425614499 0.3328263101 -1.636908964
0.4678749889 0.05721949972 -1.105399966
-0.7659599781 0.0571089983 -1.113899946
0.5415800214 0.05944899842 -1.229099989
0.8541378288 0.09742886238 -1.619743427
0.9028672014 0.09028285004 -1.615476684
-0.7427071418 0.05222521456 -1.077778578
-0.7493283252 -0.3464949975 -1.391916672
0.5535749942 -0.4007225037 -1.555999994
0.6746324479 -0.6662666249 -1.237931222
0.4023757937 -0.3295385975 -1.330380095
-0.9412974864 -0.4098000005 -1.551075011
0.4509299994 -0.4040000041 -1.501466672
0.7942396175 -0.5874509399 -1.382183654
-0.7158850133 0.1770749986 -1.291350007
-0.7787636383 -0.3353172717 -1.310236362
-0.2862700835 -0.4733200281 -1.574238812
0.2535893577 -0.4518230473 -1.621139541
0.6711553214 -0.02835509833 -1.430017885
-0.8864411551 -0.4036226914 -1.494588471
0.7333219157 -0.4537638712 -1.62073004
0.7340348871 -0.4933647439 -1.55096051
-0.2872165123 -0.6608783686 -1.228755818
-0.9140771372 -0.4580528566 -1.594028558
-0.7474046151 -0.3353159058 -1.258547367
0.6856371687 -0.4311133961 -1.659938683
-0.04667916402 -0.5822593302 -1.38030469
0.4229350001 -0.3927770048 -1.433760011
0.7935091271 -0.5571394908 -1.436716757
-0.1664032606 -0.448512034 -1.620858853
-0.04617152836 -0.4494890692 -1.620258991
-0.8397143509 -0.3922886952 -1.428508707
-0.1062195665 -0.4487433231 -1.620453323
0.1933485761 -0.4515197711 -1.620927169
-0.2260621782 -0.4477664379 -1.620962799
0.1332929529 -0.4507335239 -1.621165091
0.7454516495 0.1269970587 -1.632010588
0.6138707132 -0.620614813 -1.320483657
0.1956140736 -0.6011511109 -1.348733328
0.4116794702 -0.3394263167 -1.368952632
-0.7416097833 -0.3438397821 -1.217902178
0.25317922 0.3708048774 -1.628160976
-0.2859471631 -0.4263431206 -1.659053897
-0.7058973705 0.06680664505 -1.09485718
-0.7462206133 -0.5006832055 -1.514249612
0.7914152982 -0.4547651673 -1.61901069
-0.6471933671 0.2420676924 -1.402663464
-0.8022427342 -0.3408109139 -1.331363624
-0.869070002 -0.3866542833 -1.455585727
0.421358943 -0.3813289144 -1.33931229
-0.3504176646 -0.3634550025 -1.773113334
-0.6984092364 -0.4069892351 -1.371007699
-0.7870203853 -0.5335990408 -1.446942316
0.7927212172 -0.4762160215 -1.58038011
0.3725571783 -0.4755108551 -1.580524787
-0.9543600082 0.2251600027 -1.64199996
0.2533939621 -0.4751435852 -1.578690942
-0.04598351552 0.1120443463 -1.181144617
0.1337626816 -0.4744126491 -1.578431459
0.6936103824 -0.04752296174 -1.405045039
-0.3463569838 -0.4727220906 -1.573739417
-0.4052556262 0.02549840954 -1.076068518
-0.5262005113 -0.4719800256 -1.572803569
-0.1066499186 -0.5813101655 -1.380828412
0.4778528639 -0.1472671458 -1.272985714
0.4759916663 -0.2160683324 -1.443750004
-0.8497999907 0.1729699969 -1.419700027
0.5061100014 -0.4568537511 -1.501900002
-0.4087175571 0.03384211409 -1.047863253
0.3733214335 0.1115492032 -1.182927092
-0.674542274 -0.3858788637 -1.301520456
-0.2870557149 -0.5358824583 -1.45934053
-0.8403700093 -0.4733700057 -1.500049988
0.3129409523 0.4291789683 -1.723683331
-0.9321174983 -0.4636271415 -1.506067855
0.3135044482 0.3312266555 -1.561022745
-0.4668046924 -0.4884879998 -1.54310846
0.031831 -0.6027599871 -1.352050006
-0.828525722 -0.4419971449 -1.434857147
0.4241791136 0.2406373329 -1.405768885
-0.3450322403 -0.2997193095 -1.886968966
-0.8905607175 -0.4886751381 -1.540759665
0.2523210908 0.1760454549 -1.293709092
-0.1659297249 -0.5147316777 -1.500881259
0.6840000153 -0.2280250043 -1.696750045
-0.9556666717 -0.4881026986 -1.537787299
-0.1057097559 -0.5366498429 -1.461731499
-0.283267498 0.4189945012 -1.706835008
-0.7023525015 -0.3626175001 -1.772850007
-0.5261277546 -0.4886612198 -1.542822045
-0.5861627691 -0.4887382694 -1.542379618
0.2535818914 0.3531399998 -1.598743241
-0.7634675056 -0.2137537524 -1.368200004
0.3740452013 0.3307405025 -1.559639932
-0.7065510495 -0.4881940601 -1.542524889
-0.2863673636 -0.5133046603 -1.500681891
-0.4663706509 -0.01319637705 -1.093393953
-0.7545528667 -0.4637047634 -1.504900007
-0.7767975007 -0.3875066675 -1.322087492
-0.04510241392 -0.4906583615 -1.54629222
-0.6463938699 -0.4092739902 -1.686301944
-0.6795188108 -0.3983588649 -1.306562701
-0.2860124495 0.09034480113 -1.14053728
0.07439404555 -0.4912069624 -1.547644889
0.3136206117 -0.4526010581 -1.620559173
-0.924592495 -0.4752499983 -1.4648
0.4704880029 0.07571230046 -1.139469981
-0.2209620936 -0.01331427335 -1.113220004
0.2534556145 -0.492163909 -1.548798747
0.4726600051 -0.4533285669 -1.438014303
0.6974404961 -0.06519514956 -1.404629999
0.1339831581 -0.4916986218 -1.54777268
0.426587104 -0.4918932992 -1.551850507
0.676541876 -0.6034337531 -1.353966673
-0.7459129989 -0.4467790008 -1.453900003
-0.8819500208 -0.1882399991 -1.546599984
-1.006738345 -0.4486321854 -1.611760263
-0.4658257579 0.2418152521 -1.403520205
0.6734802705 -0.4935785949 -1.550953244
-0.8350125104 -0.6369500011 -1.104725003
-0.5863021411 0.3327767228 -1.560757527
-0.7216381409 -0.4572251847 -1.446003698
-0.5863056933 0.3716245452 -1.626365551
-0.6936214053 -0.3898836298 -1.273359542
-0.8819115391 -0.4676053822 -1.397423075
-1.104940216 -0.5008572839 -1.516128264
-0.8196400106 -0.09919499978 -1.400250018
0.41571447 -0.5118072055 -1.51209274
-0.4061599436 -0.5120889284 -1.500904793
-0.4057405233 -0.4891641114 -1.54334634
-0.7667833236 -0.4524244368 -1.379533331
-0.7488615802 0.2241009903 -1.373350492
-0.6752916369 -0.4526450825 -1.324254095
-0.04787080006 -0.5997570391 -1.3470944
0.1334622463 -0.3477705557 -1.804119562
-0.2863051077 -0.4477875998 -1.620679539
0.4981040001 -0.2831960022 -1.388520002
-0.8846162561 -0.5093521039 -1.502296434
-0.3360900018 0.4182266659 -1.705922219
-0.1664738906 -0.4901921884 -1.54531763
-0.6460732793 -0.5114355054 -1.500794659
-0.3465509698 -0.5132269851 -1.500131474
0.8124163008 0.2821686955 -1.664982609
-0.6934514019 -0.1500437977 -1.145677657
0.3141445312 -0.4755963265 -1.579148976
-1.093500018 -0.04851600155 -1.635499954
-0.4062181965 -0.345985501 -1.802541649
-0.106064511 -0.5149207381 -1.501068481
-0.9524598997 -0.5081101334 -1.498432442
0.48073334 0.08555416763 -1.179566642
0.253358769 -0.5188827801 -1.500532641
0.01380429317 0.06551045785 -1.096996009
0.6936584272 -0.06519663236 -1.424642086
0.4269512461 0.1564189732 -1.261030318
0.07329355932 -0.5169766493 -1.500809648
-0.2309706239 -0.6606990639 -1.229381245
0.7338215096 -0.4763150836 -1.580539111
-0.7565360454 -0.487340645 -1.543039517
0.5531845915 -0.5207875366 -1.50126352
0.5127399961 -0.3995300035 -1.628766696
0.6737455396 -0.521132964 -1.501036532
-0.8759649992 -0.0957705006 -1.337599993
-0.8074896979 -0.6536748784 -1.147943289
0.3737846383 -0.5200737156 -1.500293191
0.7331067634 -0.5211307267 -1.500482353
0.7310510529 -0.5395625014 -1.467042107
0.6738062354 -0.5397174134 -1.46684588
-0.5858436089 -0.6787924613 -1.193984651
0.3141070721 -0.5390938584 -1.465142858
-0.226661041 0.08984806901 -1.140056136
0.5614044962 -0.4750404044 -1.578127521
-1.00605178 -0.4879989663 -1.541033332
0.8534267985 0.04791665365 -1.546381044
0.5535947488 -0.5392467693 -1.4665596
0.6412500143 -0.3358699977 -1.677800059
0.4905685843 -0.5373975215 -1.465830979
-0.8561300039 -0.288289994 -1.561499953
-0.8299607102 -0.4595378563 -1.322303568
0.2539475165 0.156139934 -1.259434603
-0.166645467 -0.5366415573 -1.460072318
-0.8810889979 -0.5066190004 -1.383636669
0.471172381 -0.4661528567 -1.578538083
0.6948619962 -0.0654174 -1.486100006
-0.1059031095 -0.6472711968 -1.260211598
-0.5857644147 -0.5348546913 -1.457679629
0.1931109043 0.06503079089 -1.097852714
-0.468174999 -0.3615683317 -1.770233333
0.2533617014 0.3055087945 -1.51707376
-0.7739271436 -0.2218199968 -1.262057117
-0.4061999191 0.1942347199 -1.320994603
0.4024624968 -0.3756038449 -1.343940382
-0.05745361459 -0.6615499992 -1.229592277
-0.4660983796 -0.5348398769 -1.458358715
0.01345972209 -0.6478863123 -1.261375096
0.3915132815 -0.5222260009 -1.446637502
-0.9440345347 -0.531072033 -1.454244918
-0.1063268028 -0.4903274087 -1.546019719
-0.706248843 -0.4089566007 -1.686845812
-0.9268766642 -0.5264800191 -1.402333339
-0.6943531505 -0.5077584993 -1.336850106
-0.6755335466 -0.4984077407 -1.343909671
-0.2865018792 -0.6462141788 -1.259925001
-0.04591019378 -0.6170793469 -1.317299197
0.4014781822 -0.4660313631 -1.420557569
-0.4064291032 -0.3804245807 -1.740446002
-0.6848523201 -0.5483367678 -1.432545456
0.4882247147 -0.3531209521 -1.79596143
-0.2857997752 -0.489440926 -1.545018531
-0.106247536 -0.4738902691 -1.575640118
-0.4060606069 -0.4260846984 -1.657462123
0.4387299965 -0.03306233355 -1.265616675
-1.06370871 -0.4715743907 -1.569615333
0.7332371539 -0.5865520653 -1.383475286
-0.4058743394 0.2242723562 -1.373306322
0.4017439366 -0.3954001356 -1.370573757
-0.6743547308 -0.5262351639 -1.365704302
-0.8857357018 -0.5509570617 -1.427070174
-0.9182950258 -0.3794149905 -1.520650029
-0.4071014665 -0.535244811 -1.458258946
-0.9462746564 -0.5508108686 -1.426793606
-0.3529300094 0.4582299888 -1.862200022
0.7862789989 -0.09601486673 -1.485663335
-1.006423543 -0.5509662939 -1.42610656
-0.04825467058 -0.4738212824 -1.576449274
0.07259968745 0.03993601766 -1.085601413
-0.7660568482 -0.379287823 -1.739863264
-0.4661781289 -0.5512830946 -1.428755902
0.5405300061 0.0359686669 -1.274333318
-0.1669968187 -0.3636554547 -1.773872728
-0.5257271394 -0.551547233 -1.427156978
-0.6460687219 -0.551502531 -1.427769675
0.6607450247 -0.06990999728 -1.562749982
-0.04713741183 -0.2893894572 -1.906290501
-1.065904916 -0.4874272684 -1.541430049
0.4021322554 -0.3513170952 -1.35814193
-0.346122633 -0.5524762567 -1.429070694
0.07346899991 -0.663695431 -1.234726724
0.733403367 -0.4296038785 -1.663046942
0.2535366896 -0.649259212 -1.263931418
0.4622600079 -0.2247799933 -1.423099995
-0.8795442837 -0.1535042876 -1.379314286
-0.5262385128 -0.445578616 -1.621398974
0.5887600183 -0.3478299975 -1.588700056
0.5184234442 -0.4978020715 -1.538613788
0.013608606 -0.5540434877 -1.433059136
0.2535779903 -0.5555136391 -1.435470411
-0.5850616458 0.306300065 -1.514792105
-0.7003763146 -0.4250226303 -1.289144732
0.8507130343 -0.5562158133 -1.43869887
0.4520550072 -0.1668149978 -1.365199983
0.3133388734 -0.6493491176 -1.264200698
-0.6726962477 -0.3735612482 -1.284925014
0.9025650794 -0.495362857 -1.547141798
0.3300999999 0.2666499913 -1.275400043
-0.7332199812 -0.1821999997 -1.29610002
-0.1061986063 -0.5533018656 -1.431632642
-0.05571300164 0.4411399961 -1.779700041
-0.7837445367 -0.5481110314 -1.431278352
0.7909329849 -0.6210492173 -1.321888255
-0.798980908 -0.4780136374 -1.167363622
-0.3432134072 -0.2935805511 -1.897138465
-0.9241816799 -0.6420966585 -1.164650023
-0.2867077091 -0.3809764695 -1.740849046
-0.8134989298 -0.4408231075 -1.625758572
0.614015005 -0.5394662212 -1.466702441
0.7810024673 -0.6491252039 -1.270364865
-0.04610054296 -0.4276819894 -1.659432797
-0.1409800053 0.5236999989 -1.867499948
-0.5259766806 -0.6149060919 -1.313083627
-0.3757700026 0.1783400029 -1.290799975
-0.0473408313 -0.5371184863 -1.461724243
-0.6378849968 -0.3625137508 -1.773424998
0.1338511352 -0.5177997435 -1.500168782
-0.4062588028 -0.4097140839 -1.687735209
0.8391438122 -0.4630888142 -1.602922032
0.4335596123 -0.6838879087 -1.201662912
-0.6467032725 -0.5976027122 -1.342397202
0.7724714364 -0.4324825002 -1.656350004
-0.5855305925 0.3990588715 -1.672701075
-0.8893742309 -0.4533542314 -1.444250001
-0.526577256 -0.5346972554 -1.457663716
-0.1657089173 -0.3164637883 -1.857799998
0.4336626888 -0.6494834184 -1.265319589
-0.346036903 -0.4469846293 -1.620720485
0.07390870925 -0.5545208554 -1.433382877
-0.2268262874 -0.4730033061 -1.57490759
-0.4065211627 0.1124308837 -1.179977676
0.5533703619 -0.5559209479 -1.437042414
-0.6912822866 -0.4526946759 -1.311597346
-0.1032030877 0.3061088596 -1.517479867
-0.7668880715 -0.6703589055 -1.163931001
0.3136311573 0.2610896397 -1.440738303
0.5625300109 -0.04625150003 -1.373899996
0.313498579 -0.6192069526 -1.319993471
-1.003100038 -0.06485400349 -1.514799953
-0.5859762805 -0.4719788142 -1.572667385
-0.7811818928 -0.5192656815 -1.24395405
-0.7050956216 -0.3115876398 -1.224591849
-0.6998607511 0.0286171024 -1.038501833
0.7937847146 -0.5394028553 -1.46673
-0.3475300007 -0.5987887548 -1.344584021
-0.6464729414 0.1129718827 -1.179711177
-0.8059166637 -0.392972221 -1.320927786
0.6140290037 -0.5565247193 -1.437349126
0.6133316878 -0.5212262206 -1.500787301
0.4218014344 -0.06940597038 -1.166926732
-0.770269631 -0.5896446131 -1.338111071
-0.3456711249 0.3539349298 -1.598154926
0.5480458939 -0.3654730352 -1.775008936
-0.8441976519 -0.4480247042 -1.37454704
-0.7793906741 -0.5750414118 -1.213443559
0.1935808063 -0.6486232049 -1.263717697
0.5526900291 -0.2481500059 -1.62469995
-0.813308443 -0.5681599988 -1.155811114
0.3736792091 0.1564705513 -1.260175185
0.887198329 -0.4788733323 -1.574991663
-0.6712258169 -0.3365967165 -1.277480592
-0.8862746417 -0.6398572057 -1.259471371
-0.7479127074 0.2431291671 -1.403960412
0.07340007332 -0.6481481814 -1.262120604
0.7333139058 -0.6853641069 -1.203104738
0.1335763923 0.2615228091 -1.440792737
0.3738240935 -0.4924825567 -1.54989479
-0.04623361021 -0.6477270042 -1.260499627
-0.285858774 -0.6160771583 -1.315461074
0.4386739999 -0.1564690024 -1.333169997
0.5534970646 -0.6842994947 -1.202171835
0.5754100084 -0.2221900001 -1.659200013
0.3135683075 -0.5194026711 -1.500773008
0.674849987 -0.1312299967 -1.622749984
0.5537233236 -0.5858321411 -1.382202782
0.3664199909 0.3227899969 -1.438833316
-0.5856602883 0.2635521723 -1.439876964
-0.696652338 -0.5323504114 -1.456395873
-0.1660508121 -0.6470973172 -1.259881385
-0.04640633655 -0.007827519704 -1.119506061
-0.7783419967 -0.3924329996 -1.503419995
-0.3465640483 0.3058892026 -1.516077301
-0.7135199904 -0.04529599845 -1.764299989
-0.3463396868 -0.6453551159 -1.260158525
-0.6963928343 -0.2714721909 -1.209388543
-0.4661992655 -0.6446409953 -1.259416521
0.5814899802 0.1043799967 -1.367300034
-0.7896433274 -0.1438600024 -1.365333319
-0.00491853999 -0.6610299945 -1.230140018
-0.1284099966 0.4518550038 -1.575749993
0.6131016841 -0.6500347343 -1.266182852
-0.2867805268 -0.6633889424 -1.232405261
0.6351442219 0.01316776824 -1.45668965
0.7931040099 0.0721584504 -1.5691624
0.4340413277 -0.585932136 -1.381501561
-0.4538699985 -0.6624500155 -1.23210001
-0.9927130482 -0.6124065073 -1.313219923
0.2535074836 -0.6189699216 -1.319519376
0.4200116841 -0.2136218169 -1.248598408
0.4020296739 -0.4476839885 -1.393624046
-0.5858850032 -0.663075 -1.233799994
0.4096251932 -0.1602514423 -1.247745185
0.07239457092 0.4193420001 -1.707939989
0.1238399968 -0.6619399786 -1.227699995
-0.6461770276 0.3331017473 -1.560603845
-0.1160204592 -0.006766756726 -1.108845952
-1.005340743 -0.4712351927 -1.571203562
-0.9529700279 -0.09053499997 -1.442199945
0.009903548359 -0.6001402159 -1.347162368
0.8489490428 0.42824664 -1.611545599
-0.1654276195 -0.6615447686 -1.228347619
-0.06460925099 -0.008525249956 -1.107450008
-0.8814665769 -0.5765044721 -1.21130789
0.1935479453 -0.5848280032 -1.38076324
0.753151427 0.1403774283 -1.666934279
0.1314026564 -0.5380345819 -1.46321771
0.6191841426 -0.6031996546 -1.353437929
-0.766100172 -0.6345261435 -1.20184
0.1333278635 0.3304382974 -1.560204644
-0.5865094914 -0.5115264464 -1.500832834
-0.2272285053 -0.5363013174 -1.459875451
-0.6453939315 -0.4720704002 -1.572065779
-0.2882617513 -0.5989812421 -1.345375708
-0.0460864925 -0.3821759586 -1.740507329
-0.9119949937 -0.2185399979 -1.61285001
0.1931610556 -0.5387815537 -1.464081365
-0.5863234851 -0.5514401203 -1.427674997
-0.8507900238 0.0003835200041 -1.251199961
-0.7721260583 -0.4478446484 -1.206663487
-1.0003158 -0.5967080105 -1.340714774
0.429855004 -0.2748524994 -1.380900025
0.07385364364 0.0890047236 -1.14070441
0.5101400018 -0.3470399976 -1.592599988
-0.2891100049 0.1782300025 -1.289999962
-0.7065196858 -0.6427043176 -1.259766666
-0.7817833225 -0.3892233272 -1.364533345
-0.4666335022 -0.5975645152 -1.344282946
-0.7522927317 0.333338057 -1.560805756
-0.8740099967 -0.6063449979 -1.099749982
-0.8547499776 -0.5922899842 -1.085199952
-0.7411049902 -0.204317499 -1.327650011
-0.8479400277 -0.07852900028 -1.489099979
0.6822735328 -0.05046690199 -1.492154907
0.5723979818 -0.4600236829 -1.606173684
0.4406733314 -0.2241166631 -1.374566674
-0.2504350003 0.4193137474 -1.706387505
-0.1662355201 0.12943342 -1.2106668
0.8379006529 -0.5841788148 -1.38754898
0.5529333154 -0.04634766653 -1.510233323
-0.9443556578 -0.6402354881 -1.259098726
0.01395632114 -0.5826346 -1.380828382
-0.1321262503 0.5007093735 -1.746143758
0.1347225178 -0.6642873386 -1.235199999
0.3737393659 -0.6192817073 -1.320383622
0.851170001 -0.5394686493 -1.466655406
0.5096800029 -0.1516200006 -1.329349995
-0.7588575613 -0.633868492 -1.261328718
-0.9364732142 -0.4461228578 -1.601647618
0.5078666608 -0.2188199957 -1.512933334
0.8798149992 -0.1143537504 -1.635015622
-0.8293343764 -0.5214146897 -1.191846877
0.7744457102 -0.6658692221 -1.240459739
-0.6464125181 -0.4455131913 -1.620125883
0.897570014 -0.1169800013 -1.585000038
-0.6466415208 -0.5765214122 -1.380449516
-0.3426078966 -0.6640510528 -1.232926325
-0.6990925074 -0.09025034979 -1.197495013
-0.8922481165 -0.5754775729 -1.379922328
0.9274121289 -0.3998935691 -1.568839286
0.5545300245 -0.07628100365 -1.531100035
-0.7159181167 -0.6504396697 -1.211932841
-0.7940528648 -0.473041428 -1.167814289
-1.00548525 -0.5754262072 -1.381212965
0.4185692367 -0.2900001715 -1.301302547
-0.8777436694 -0.5154816677 -1.319653332
-0.5027499795 -0.6625999808 -1.23119998
-0.518432492 0.1771409996 -1.292315012
-0.8894077737 -0.654006636 -1.219190831
-0.8615599871 -0.2110899985 -1.523900032
-0.8269293922 -0.3901078773 -1.38532424
0.6130396403 -0.5864657483 -1.382037575
-0.7424874233 0.1297757576 -1.209078794
0.4027703908 -0.1396229124 -1.218213588
-0.6449142884 -0.6601261132 -1.227500003
-0.8233218139 -0.4626663652 -1.263536367
0.1335704929 -0.6177790484 -1.319601792
0.3100991696 0.1758497922 -1.293914586
0.55367622 -0.6497016051 -1.265689774
-0.1661651756 0.1120066534 -1.179965367
0.6718599796 0.1199399978 -1.530300021
0.8285679936 -0.6039760053 -1.353710008
0.6534640014 -0.3845500022 -1.723219991
0.2535242443 -0.6831104867 -1.200788136
0.4935183442 -0.6199153838 -1.319779051
0.4219150542 -0.4100552685 -1.358483868
0.4346022789 -0.5583541283 -1.429707597
0.4129581858 0.4199672721 -1.707836357
0.07350041798 -0.4742182704 -1.57699654
0.5548821854 -0.4938320766 -1.550051638
-0.9356611709 -0.6779984615 -1.192558755
0.8539088229 -0.5208172748 -1.501506264
-0.7656293698 -0.6142002049 -1.312318943
-0.8069935983 -0.5079749995 -1.155484005
-0.9969048423 -0.354051291 -1.618329029
-1.11144627 -0.4866334347 -1.54193283
-0.2261941634 0.129523526 -1.210251594
0.5930899978 -0.08956000209 -1.619650006
0.1336706805 0.2885558104 -1.487186384
-0.5864419714 -0.3454674609 -1.802211789
0.674170384 -0.6209760767 -1.320783403
0.3741995409 -0.5558720894 -1.435584968
0.1936196271 -0.6826741632 -1.200541309
0.4685600027 -0.3889449984 -1.394349992
0.6250100136 -0.1873950064 -1.734849989
0.8368842772 -0.108661427 -1.494914276
0.4934325888 -0.6497533109 -1.265158582
-0.8261049986 0.07986100018 -1.232649982
0.6314499974 -0.09084700048 -1.521100044
-0.5256173334 0.02489254085 -1.073129349
0.3743586574 -0.4292263639 -1.664021214
-1.005930638 -0.5103295273 -1.500693625
-0.5863711719 0.2897361392 -1.485057932
-0.6857685092 -0.5188054599 -1.363684395
0.8407992213 0.02897572354 -1.511509366
0.6133107171 -0.6657009854 -1.237691026
0.7340109293 -0.603950187 -1.35420926
0.1338503874 -0.5551955802 -1.433576131
-0.2262759496 -0.3813986428 -1.740415695
-0.10668174 -0.6809835774 -1.198417103
-0.7061626839 -0.5973829436 -1.342807793
0.4973633389 -0.3460299969 -1.423133294
-1.013149977 -0.03662850056 -1.512649953
-0.2862111914 -0.6799949886 -1.196737553
0.741277501 -0.601940006 -1.350224972
0.4332295603 -0.4535693151 -1.620521443
0.4205305233 -0.03037904829 -1.149471897
0.1322997856 -0.005803889296 -1.129647055
-0.4060907765 -0.6452161549 -1.259723014
-0.7062403825 -0.6788615353 -1.193594172
0.6735287054 -0.5868629063 -1.38280172
-0.8644649982 -0.5956799984 -1.104049981
0.4334197172 -0.6653451402 -1.237068868
-1.026000023 -0.0800199993 -1.548700035
0.5536075575 -0.6201877868 -1.320236317
-0.6669267626 -0.04549879811 -1.127934273
0.1953088539 -0.6645376428 -1.234585986
0.605790019 -0.07883399725 -1.467399955
-0.1061642082 -0.6173157917 -1.316194104
-0.803318419 -0.4563168413 -1.584642115
-0.8325399756 0.05572900176 -1.202999949
0.6066399813 -0.1561399996 -1.515100002
-0.7876684427 -0.5764522195 -1.254739997
0.5823175013 -0.3916224986 -1.604925007
-1.006895006 -0.2187074982 -1.60027501
0.07389564368 -0.6818789235 -1.199802293
0.8538191691 -0.4932189838 -1.55091354
-0.7811682354 -0.650977975 -1.149227487
-0.7570337355 0.1725024972 -1.295699999
0.3137146158 -0.5557763787 -1.435487176
-0.8889042545 -0.5772474446 -1.25727234
-0.5819399953 -0.3615975007 -1.768949986
-0.1079182002 -0.6000019268 -1.346206665
-0.8271633298 -0.5097977773 -1.322714819
-0.8268299997 -0.3907300085 -1.503050029
0.8986906665 -0.5185906621 -1.505978318
0.01346983873 -0.4498799202 -1.620709871
-0.8793699741 -0.03245199844 -1.314700007
-0.586183721 -0.614487209 -1.312891162
0.4502074942 -0.09315075167 -1.323074996
-0.8323660372 -0.6364596278 -1.261913287
-0.2092199959 0.3185562529 -1.3882
0.2499565379 -0.6013107735 -1.348969221
-0.2022650018 -0.05352749862 -1.746299982
0.1332987532 0.2235775322 -1.375168833
-0.5888316397 -0.6600959824 -1.227150823
0.4184229183 -0.09632415915 -1.187546681
-0.793130676 -0.5854880015 -1.147373327
-0.7043928589 -0.04331221405 -1.810842872
0.5479247338 -0.3823369474 -1.745024092
0.4272587893 0.1283576125 -1.21245917
0.07373840005 -0.5378057957 -1.463552822
0.5170399944 0.01503833352 -1.258933306
-0.7625780367 -0.6764215906 -1.185243366
0.3735302126 0.3710763841 -1.627920746
-0.7060670135 -0.4455875588 -1.620612935
0.3134439075 0.2407893746 -1.406065622
0.539417994 -0.02895432012 -1.3227
0.3137593896 0.08778220938 -1.140090014
-0.8350204204 -0.5722197903 -1.196257442
0.07390537965 -0.617788488 -1.318172184
0.3728082906 0.1287918135 -1.212654146
-0.6726000011 -0.3492550006 -1.294349988
-0.8846092983 -0.6128023155 -1.312203609
-0.8203749115 -0.5921506383 -1.332259094
-0.2256959462 0.1948129062 -1.322764437
-0.4095588292 -0.6610187006 -1.227936368
-0.7059350811 0.09196289226 -1.140747911
-0.1066604625 -0.3166915503 -1.857710161
0.7332184563 -0.6665179916 -1.23863938
0.6599300106 0.06210666647 -1.436099966
-0.8849126897 -0.6780390185 -1.191701483
0.4696399868 -0.05062000081 -1.339900017
-0.4663848035 -0.6603902947 -1.227806861
0.6377099752 -0.1400700063 -1.559399962
-0.8995530172 -0.4714418998 -1.565348604
-1.059310233 -0.5334423719 -1.457148838
0.4164005851 -0.4529447047 -1.438400002
0.4028153726 -0.09377499488 -1.203648757
0.4350862978 -0.6034848182 -1.35316296
-0.9965450168 -0.1686500013 -1.56129998
0.1936257277 -0.5185411342 -1.500341388
-0.6806154551 -0.1633663638 -1.181490909
-0.1043538662 -0.663852336 -1.233216671
0.4804139912 -0.3355120003 -1.385619998
-0.4662272596 -0.6792430748 -1.195076739
0.4208705889 -0.3308373559 -1.312419268
-0.7357299924 -0.6626799703 -1.16260004
0.4335180378 -0.6196000711 -1.32026219
-0.2440308137 0.3707967439 -1.626517444
-0.4061719645 -0.6795986251 -1.195831666
0.6801800132 -0.2740100026 -1.71389997
-0.9399111407 -0.6530102842 -1.218506854
-0.5265270268 -0.6790675365 -1.194745955
-0.8694228573 -0.5262971435 -1.267335713
-0.2861418739 -0.4098331152 -1.688516628
0.1939045103 -0.491912319 -1.548048194
-0.7211000125 -0.1634349997 -1.262016654
0.3137566668 -0.3646056518 -1.777062325
-0.4058830638 0.401038851 -1.676625105
-0.9329900146 -0.263590008 -1.680500031
-0.2271957562 0.2236461624 -1.372323242
0.2544870153 -0.6649034585 -1.235818845
-0.7747817531 -0.4542494746 -1.246407019
0.01425167505 0.371281435 -1.628664354
0.4556866785 -0.2655466596 -1.430366635
-0.8012173255 -0.4691739996 -1.194280005
0.1337631508 0.1290896938 -1.211700659
0.4811368833 -0.4491491438 -1.627305135
0.8516358741 -0.4762500009 -1.580830627
-0.225425114 0.2425304545 -1.39762955
0.2534674952 -0.6026208401 -1.352966666
-0.1658551379 -0.4735400271 -1.574900275
0.5238000154 -0.4226399958 -1.665400028
0.5012380083 -0.6013879935 -1.348986665
0.5527516743 -0.6655755508 -1.237914359
-0.04549995368 -0.3637420937 -1.773365115
0.7680084875 -0.68087901 -1.213015698
-0.5804760712 -0.3241492858 -1.839801789
-0.4568374977 0.1782599986 -1.290274978
0.6731905159 -0.5570453657 -1.437043848
0.4191716679 -0.1856063636 -1.229075764
0.4022330016 -0.4902060002 -1.407434994
-0.3497462505 -0.6606476558 -1.228618748
0.4131952618 -0.09804515854 -1.246357886
-0.16539034 0.2179897528 -1.355789505
0.3136049483 -0.6651234385 -1.235719794
0.1940679525 0.01705187167 -1.121773673
-0.8287996766 -0.6470885068 -1.21377078
0.4209172816 -0.1508220961 -1.212193414
-0.5860851463 -0.6435483245 -1.25987312
0.6135503156 -0.4761788019 -1.580395317
0.1935957552 -0.4750860347 -1.578294386
-0.2860827627 -0.5530865037 -1.429302819
-0.7556454851 -0.3992550444 -1.223093805
0.01374776953 -0.5163767639 -1.500725066
-0.5859648547 -0.5770392682 -1.380748045
0.4936115612 -0.6841133502 -1.202214492
-0.04627293393 -0.4107969112 -1.689640195
-1.055799961 0.07041300088 -1.519899964
0.4329622164 -0.3485397839 -1.80434649
-0.8264300011 -0.5345399306 -1.457493449
-0.4062122709 -0.578300724 -1.381067432
0.3730271621 -0.3654746928 -1.776264202
0.2546943584 0.4294832484 -1.724107691
-0.7447141598 0.1591808908 -1.260778213
-0.6462987978 -0.6431304812 -1.259969488
0.555673341 -0.2745800018 -1.489533345
0.5484671337 0.02609078579 -1.308342866
-0.8760131101 -0.6681118912 -1.160252217
-0.5260526194 0.09146837113 -1.141277124
0.01375497671 -0.4741649687 -1.577131285
0.2535667427 -0.5850926099 -1.381143832
-0.21153 -0.03749199957 -1.911999941
-0.4657801403 -0.511637672 -1.501204067
0.07360496988 -0.4499959052 -1.62135762
-0.9441438221 -0.5940617171 -1.33859804
0.5042314231 -0.04151111362 -1.266528589
-1.065563671 -0.5091646487 -1.50126035
0.4340379953 -0.4534960032 -1.495039988
0.7921622254 -0.6041960319 -1.354028577
0.4033449888 -0.06687700003 -1.168349981
-0.7705949685 -0.5116064029 -1.222889144
-0.9481599927 -0.28549999 -1.555199981
0.6725964789 -0.4532154934 -1.620256424
-0.2259762094 -0.5800366107 -1.380987624
-0.7590534694 -0.3867272938 -1.254055292
0.01301504578 -0.5372565499 -1.462638498
-0.5857023845 -0.5975091059 -1.342560849
0.4944873743 -0.6655523089 -1.237007692
-0.2269815573 -0.5990255689 -1.345978447
0.4153430015 -0.3314155027 -1.834465009
0.3171799978 -0.6033633371 -1.352576669
-0.5862444311 -0.4456606553 -1.620717756
0.4270337448 -0.6015562564 -1.350287512
-0.04625969946 0.2621539199 -1.440927228
0.1935649214 -0.618112162 -1.320121172
-0.1025675885 0.2621753296 -1.440842746
-0.5861336604 0.03112765778 -1.041567853
-0.8941720009 -0.4517820001 -1.505426661
0.7280400022 -0.4122117165 -1.679458583
-0.5262660799 -0.5114834874 -1.501296686
-0.1668847555 -0.3464640663 -1.80391378
-0.2259861409 -0.6163220519 -1.316208011
0.01392045432 -0.6174981951 -1.317838678
-0.1664092983 -0.6165400242 -1.316243394
-0.4659712052 -0.6148969039 -1.313671782
0.1454700008 -0.008443899918 -1.103950024
-0.4063770465 -0.6154627476 -1.31447816
-0.4662948185 -0.4722938076 -1.572997154
-0.8220000267 -0.1601900011 -1.430299997
-0.7057635541 0.2245354702 -1.37200209
-0.7475283245 -0.3885216713 -1.44841667
-0.3459903471 -0.6155191889 -1.315677607
0.3140949223 -0.4122181432 -1.693082664
-0.1282799989 0.4181199968 -1.460000038
0.3742937498 -0.6652341023 -1.236450005
0.2543660006 0.4197322888 -1.70738286
-0.6464162986 -0.6140588572 -1.313049758
0.5341800054 -0.2700999975 -1.446466684
0.1336167356 0.1935459754 -1.323226694
-0.2860202945 -0.5800799425 -1.380443147
0.4903500053 -0.6030209037 -1.353149994
0.6806800067 0.1285800003 -1.563000023
-0.3470566521 0.0659916676 -1.096143881
0.8279604394 -0.6085782569 -1.34447826
0.6704486688 -0.3904896677 -1.667183344
0.3731013172 0.3535572377 -1.598596055
-0.4011759996 -0.6626760006 -1.232259989
0.5926499963 0.06254500151 -1.320899963
-0.825210015 -0.08694333335 -1.258433302
-0.2862329664 0.3714108136 -1.627873683
0.6130607503 -0.4935050518 -1.550780052
-0.8832998033 -0.5312819611 -1.454219216
0.01362638463 0.2882724869 -1.485861929
-0.8262371293 -0.5513114642 -1.427888347
-0.7021767097 -0.3526592232 -1.787799088
-0.2246179895 -0.2908997281 -1.903322826
-0.5861086778 0.3543522656 -1.597656603
-0.6890513003 -0.4612741308 -1.372619559
0.7337819416 -0.650549982 -1.267681281
0.1298271148 -0.6004432658 -1.349303842
-0.1629016552 -0.5991699325 -1.346615232
0.3740050693 -0.4529062979 -1.62116436
0.07374635888 -0.6002856394 -1.348375646
0.5222799778 0.3815700114 -1.330600023
-0.2273446155 -0.6630423092 -1.233511544
0.4215854536 -0.4515717771 -1.379529546
0.4029999971 -0.118976665 -1.235300024
-0.7660223586 -0.4088132007 -1.686545412
-0.4660769957 -0.5774243202 -1.381558099
0.3695028573 -0.6017421356 -1.349785703
-0.9020999869 -0.3434099952 -1.503300031
0.4027378555 -0.1593527145 -1.243654283
-0.8908562546 -0.5912476075 -1.336818329
0.3135310277 -0.585472395 -1.381567473
0.5514115447 -0.603667435 -1.353548716
0.5372224897 -0.141907502 -1.380925
0.3130480401 0.0646829269 -1.098378362
-1.10447222 -0.4777069439 -1.557269451
-0.806113964 -0.5797145254 -1.269943399
0.8169979993 0.3785212934 -1.63880353
0.01424717384 -0.4911019793 -1.54698075
-0.991960004 -0.4002024978 -1.632825017
0.04599000141 -0.6028000116 -1.352200031
-0.04656765603 0.2886795238 -1.486499472
0.7888795338 0.124299303 -1.641888372
0.194782224 -0.6027522286 -1.35205555
-0.7268750072 -0.416445002 -1.423899949
-0.8709174991 -0.5850675007 -1.147241652
0.3046390902 -0.6007263552 -1.350127264
0.1176799983 0.4581499994 -1.834599972
-0.5860176232 -0.408979294 -1.687260941
-0.7386399806 -0.09588050097 -1.263100028
0.4347675232 -0.4755884517 -1.578634513
0.3737815884 -0.5858355864 -1.381485623
0.07333466553 -0.583225763 -1.380755481
-0.04635398351 -0.5540575081 -1.431116003
-0.1079808801 -0.6612495971 -1.228939991
0.7337081343 -0.6217716253 -1.320454658
0.6137127436 -0.6845693019 -1.202645354
0.1335991398 -0.5840977406 -1.38101617
-0.04712481014 -0.3167702787 -1.857702787
-0.2263876276 -0.4099847207 -1.689114882
0.4937633973 -0.5861680665 -1.381654833
-0.3464213105 -0.679829734 -1.196369922
-0.9175499976 -0.3337949961 -1.464700043
-0.7778716733 -0.09110699967 -1.192233314
0.3735560037 -0.6837718688 -1.201928578
-0.7424600124 -0.4323999882 -1.329399943
-0.10800494 -0.3638820016 -1.77384599
0.8865477906 -0.5444122156 -1.4627778
-0.2261523274 -0.6463172269 -1.260036454
0.4321069 -0.3652757746 -1.776284507
-0.1333169238 0.516352305 -1.800661536
0.3732570886 -0.6494001465 -1.264938611
0.1336607189 -0.6822440522 -1.200102848
-0.1666602583 -0.553377232 -1.429930995
0.5004657081 -0.3204242885 -1.556914295
0.01366755662 0.2614966749 -1.440009331
-0.8281144717 -0.5750344375 -1.382710054
0.4658299983 -0.1984200031 -1.280900002
0.3133976602 -0.4924366012 -1.549618715
-0.9454365703 -0.5737728279 -1.380529177
0.7913068999 -0.09551006855 -1.454839076
0.1918525501 -0.005157010072 -1.13233289
0.6153447126 -0.4514119653 -1.622523304
-0.1664259758 -0.4100168675 -1.689456867
-0.7598228625 -0.362955715 -1.77311429
-0.52626115 -0.5977694247 -1.342763715
-0.7065500015 0.1303914589 -1.208642821
-0.7621054541 -0.346194549 -1.445109075
0.4938343234 -0.5563429208 -1.436163037
-0.9387614301 -0.3363042814 -1.496900014
-0.7487054521 -0.07621045411 -1.140545455
-0.1736016696 -0.03587533316 -1.387233317
0.733682656 -0.5569724889 -1.437279335
-0.6463903038 -0.4885195649 -1.542764348
-0.3454945304 -0.4893083223 -1.543998326
-0.9207850099 -0.5980249941 -1.251049995
0.07385755551 -0.4279482544 -1.661774069
0.134354163 -0.4283374157 -1.661763636
0.1948319819 -0.4284859011 -1.662421167
-0.2261186788 -0.4268510692 -1.659586163
0.53901501 -0.3335575014 -1.492850006
0.0741898001 -0.3642978013 -1.773937995
0.1937071052 0.2233904738 -1.375332896
0.3135562501 -0.4289532135 -1.663363837
-0.2262846361 -0.6802625639 -1.197539896
0.4336895323 -0.4293212752 -1.663860425
-0.5260608323 -0.5773928795 -1.380568916
0.6139536584 -0.4307571838 -1.657902815
-0.1669112643 0.2075213805 -1.331365034
0.1926142378 0.0462735895 -1.082628593
-0.2864076278 -0.2995462706 -1.887091528
0.8882625103 -0.5404262543 -1.468112484
0.01392764334 -0.4279569783 -1.660237499
-0.8252099951 -0.3403185705 -1.383490483
0.1329933343 -0.6028116643 -1.352183342
0.7518645471 0.05597600002 -1.534254551
0.6227584012 -0.3928970209 -1.661449993
-0.7209559917 -0.3460080028 -1.376080012
-0.9845543946 -0.6339875771 -1.273976512
0.5337757956 -0.4072784084 -1.695855688
-0.5857150447 -0.4257265788 -1.657472971
-0.1660737804 -0.4269236592 -1.65912256
-0.1049441197 0.40135219 -1.677764461
-0.9767299891 -0.259920001 -1.584900022
-0.1074756761 -0.4272855493 -1.659173411
-0.8070462499 -0.6656707251 -1.155407895
-0.4001385719 -0.3631042827 -1.77353572
0.6419399977 -0.1851499975 -1.594300032
0.5232099891 -0.3928799927 -1.497699976
-0.9657500148 -0.3435200036 -1.610419989
0.5756599903 -0.3588500023 -1.57099998
-0.8212774424 -0.4252433725 -1.657834885
0.3733456474 0.4007535135 -1.677480752
-0.7063973286 -0.4254092111 -1.657131688
0.01276028389 0.353541025 -1.599026925
-0.4058314304 -0.4465676809 -1.620768915
-0.8435040116 -0.4200179994 -1.637260032
0.6633002854 -0.383265648 -1.619967356
-0.4380199909 0.4534499943 -1.849600017
-0.8862633308 -0.3351333439 -1.639400005
-0.9675500095 -0.4057999998 -1.599099994
0.52433002 -0.1202699989 -1.488199949
-0.1592721226 -0.000219999077 -1.112372727
-0.6456509133 0.06676627423 -1.095163968
0.6123937443 -0.6014237404 -1.349525005
-0.8272545663 -0.408713317 -1.686802806
0.01409044458 0.3307393029 -1.560305455
-0.4064628677 -0.4723994838 -1.573143926
-0.8134849966 -0.385315001 -1.557500005
0.5094533364 -0.1640566637 -1.486699979
-0.5264729874 -0.4091309714 -1.687324881
-0.2071524288 0.3762225713 -1.316144286
-0.2864534824 -0.3463360975 -1.803227051
-0.4666065013 -0.4091744697 -1.687422572
-0.3465320601 -0.4095334482 -1.68854213
-0.7671905005 -0.4256698006 -1.657325994
-0.1068254031 -0.4102731474 -1.689433567
-0.526200584 0.1593223357 -1.260422991
-0.872405422 -0.6482463838 -1.145368677
0.01347971684 -0.4105961222 -1.690987561
0.07328815893 -0.4108607327 -1.691178031
-0.6461275072 0.02467636923 -1.068672568
0.1332806183 -0.4111769356 -1.691290325
0.4080549926 0.3161149919 -1.108749986
0.1931855776 -0.4112178021 -1.69227352
0.6810434591 -0.3567817292 -1.631542107
0.2535318945 -0.4119926631 -1.692610945
0.1340667864 -0.364316787 -1.775060718
0.3734155229 -0.4119699683 -1.69400667
-1.037999988 0.1282400042 -1.597000003
0.4330565353 -0.4121164031 -1.693981843
0.7808499932 -0.602030009 -1.350449979
-0.7345299721 -0.05942299962 -1.244799972
0.4288914323 0.04775650937 -1.094929811
0.01379015007 -0.6816501671 -1.199084485
-0.8732661215 -0.4013145468 -1.692045453
-0.8513199985 -0.3380075023 -1.419324994
0.4386300027 -0.3322619975 -1.432380009
-0.6825702606 -0.2837108858 -1.245091148
-0.8878799847 -0.3327371393 -1.449899997
0.01573322239 0.419677419 -1.707951623
-0.7064958512 -0.6143102714 -1.31259864
-0.6755020817 -0.2747758354 -1.243304158
-0.1310027282 0.4859636399 -1.69469091
-0.705645175 0.1600848667 -1.260199178
-0.7826099992 -0.3519766728 -1.48393333
-0.3461292716 -0.5796040096 -1.380308848
-0.6193466584 -0.3267999987 -1.832200011
0.07495289824 0.01083433502 -1.11790721
-0.2262630346 -0.5528679503 -1.430283988
0.4595499933 -0.3519099951 -1.489149988
-0.7439546127 -0.2871792362 -1.247830767
0.3916761061 -0.01919245496 -1.154065653
0.4681575038 -0.07259287499 -1.217000008
-0.9391933282 -0.01682336597 -1.392033339
0.4341810042 -0.3852884738 -1.741351605
0.4028101132 -0.0401041048 -1.182796554
-0.7037166754 -0.05785866703 -1.201433341
-0.226095829 -0.5144720131 -1.50036908
0.4934215579 -0.3852781558 -1.740461681
-0.7270006349 -0.6460278494 -1.166410126
0.1938382718 -0.3842409122 -1.740827766
0.192173418 0.2409997465 -1.405886072
0.3132796371 -0.3845360804 -1.740947418
0.3734656852 -0.385293568 -1.740587704
-0.6449497759 -0.3467953026 -1.799212624
0.013513357 -0.3822600381 -1.741162667
-0.6461306587 -0.6788818639 -1.193979738
0.1340243045 -0.3833498684 -1.741707894
-0.9255099893 -0.08098799735 -1.400900006
0.253566038 -0.384318906 -1.740945471
-0.7384000023 -0.2748300036 -1.22543335
-0.8377719998 0.1616020024 -1.382420015
-0.5258862349 -0.3798997533 -1.740689709
-0.9682299892 -0.02071200001 -1.438366652
-0.8255500048 -0.3464450017 -1.548974991
0.6843500137 -0.1070299968 -1.626899958
-0.8453869998 -0.5020660043 -1.366820014
-0.4063493485 -0.5982987917 -1.344028373
-0.7060999558 -0.3794232471 -1.740207788
0.372894241 0.04964853071 -1.088059478
-0.3459643224 -0.3806950883 -1.740619452
-0.7658826654 -0.4454828353 -1.620986011
0.7944387809 -0.4935507642 -1.550464023
-0.1053075029 -0.3817219047 -1.740959428
